ply
format ascii 1.0
comment PCL generated
element vertex 614
property float x
property float y
property float z
property float nx
property float ny
property float nz
property float curvature
element camera 0
property float view_px
property float view_py
property float view_pz
property float x_axisx
property float x_axisy
property float x_axisz
property float y_axisx
property float y_axisy
property float y_axisz
property float z_axisx
property float z_axisy
property float z_axisz
property float focal
property float scalex
property float scaley
property float centerx
property float centery
property int viewportx
property int viewporty
property float k1
property float k2
end_header
126.748 -91.7752 460.52301 -0.52362198 0.34482399 -0.77904803 -1.9669376e-17
128.08099 -91.426399 459.19 -0.537431 -0.179144 -0.82406098 -1.9669376e-17
129.55 -91.177597 458.556 -0.0289494 -0.221945 -0.97462898 -1.9669376e-17
131.26401 -91.204498 459.01901 -0.54234499 -0.46297801 -0.70108002 -1.9669376e-17
132.21899 -90.525101 456.082 -0.57363898 -0.493597 -0.65368199 -1.9669376e-17
133.83299 -90.433197 456.15302 0.163479 0.27246401 -0.94817603 -1.9669376e-17
135.558 -90.4701 456.67899 -0.70479 -0.080877602 -0.70479 -1.9669376e-17
136.422 -89.764297 453.522 -0.80145901 0.29259601 -0.52158499 -1.9669376e-17
137.976 -89.631699 453.36899 -0.60864699 0.349648 -0.712246 -1.9669376e-17
139.10699 -89.102402 451.513 -0.80007899 -0.0563436 -0.597242 -1.9669376e-17
140.34 -88.75 450.06699 -0.41179901 -0.54463702 -0.73061103 -1.9669376e-17
141.79201 -88.554001 449.55899 0.0301893 -0.95599401 -0.29183 -1.9669376e-17
143.313 -88.413902 449.34 -0.64485699 -0.18250699 -0.742194 -1.9669376e-17
144.325 -87.867104 447.15701 -0.54352099 -0.26543999 -0.79632097 -1.9669376e-17
145.92599 -87.777802 447.29501 -0.98444098 -0.0669038 0.162481 -1.9669376e-17
137.26601 -78.874199 411.103 -0.916861 0.0994187 -0.386628 -1.9669376e-17
147.87801 -86.718697 442.87201 0.93329698 0.010256 -0.35896 -1.9669376e-17
149.317 -86.627502 442.405 -0.68224299 -0.186066 -0.70705199 -1.9669376e-17
150.295 -86.041298 440.371 -0.73096198 0.185838 -0.656627 -1.9669376e-17
151.72099 -85.880898 439.94199 -0.72249699 0.433498 -0.538589 -1.9669376e-17
152.662 -85.360901 437.82501 -0.83656299 -0.230358 -0.49708799 -1.9669376e-17
153.705 -84.933197 436.116 -0.53958899 -0.080364302 -0.838085 -1.9669376e-17
155.237 -84.849503 436.129 -0.53016901 0.056400899 -0.84601402 -1.9669376e-17
156.302 -84.488297 434.54001 -0.927975 0.26349899 -0.26349899 -1.9669376e-17
156.90401 -83.756104 431.474 -0.93058902 -0.23545 -0.28029799 -1.9669376e-17
157.612 -83.086601 428.84601 -0.79632097 -0.26543999 -0.54352099 -1.9669376e-17
158.914 -82.933701 428.173 0.339443 -0.26921299 -0.90127897 -1.9669376e-17
-190.76199 -117.159 473.06799 -0.15685 0.027679499 -0.987234 -1.9669376e-17
-188.7 -116.933 472.98801 -0.25906199 0.456442 -0.85120302 -1.9669376e-17
-186.207 -116.534 472.03799 0.71110499 0.469598 -0.52326602 -1.9669376e-17
-186.179 -117.376 476.02899 -0.010488 0.409033 -0.91245902 -1.9669376e-17
-182.231 -116.18 472.10901 -0.64693397 0.056748599 -0.76043099 -1.9669376e-17
-179.32201 -115.489 470.23801 -0.288849 0.288849 -0.91276097 -1.9669376e-17
-177.62601 -115.49 470.83801 0.030977299 0.34075001 -0.93964398 -1.9669376e-17
-175.47099 -115.14 470.47501 0.096793301 -0.043997001 -0.99433202 -1.9669376e-17
-173.838 -115.191 471.20499 -0.025586899 -0.059702698 -0.99788803 -1.9669376e-17
-171.44701 -114.76 470.31799 -0.636123 0.47370899 -0.60905403 -1.9669376e-17
-169.12399 -112.217 468.65799 -0.171041 0.399095 -0.90081501 -1.9669376e-17
-167.261 -114.214 469.75699 0.217924 0.0094749499 -0.97592002 -1.9669376e-17
-165.192 -114.085 469.513 -0.080491699 -0.63243502 -0.77042001 -1.9669376e-17
-162.93201 -113.66 468.82001 0.95030999 0.117454 0.28829601 -1.9669376e-17
-171.558 -117.495 491.577 -0.16823401 0.108858 -0.97971803 -1.9669376e-17
-158.752 -113.119 468.13901 -0.83835202 0.287792 -0.46296999 -1.9669376e-17
-157.215 -113.225 469.04001 -0.069711298 0.96599901 -0.248969 -1.9669376e-17
-154.95799 -112.84 468.28101 -0.14035399 0.31309801 -0.93929303 -1.9669376e-17
-153.19901 -112.7 468.65302 -0.031716298 0.391168 -0.91977298 -1.9669376e-17
-151.114 -112.474 468.26501 -0.16586 0.29854801 -0.93987203 -1.9669376e-17
-149.151 -112.19 468.13599 -0.061710499 0.996185 0.061710499 -1.9669376e-17
-147.63901 -112.305 469.08801 0.119095 0.313977 -0.94193101 -1.9669376e-17
-145.55901 -111.983 468.664 -0.248264 0.39013001 -0.88665903 -1.9669376e-17
-143.474 -111.732 468.21301 -0.165345 0.087535597 -0.98234302 -1.9669376e-17
-141.495 -111.531 468.005 -0.20701 0.069003202 -0.97590202 -1.9669376e-17
-139.341 -111.206 467.341 -0.153005 0.19380701 -0.96903503 -1.9669376e-17
-137.528 -111.029 467.509 0.557221 0.323966 -0.76455897 -1.9669376e-17
-136.408 -111.33 469.448 0.28751099 -0.138431 -0.947721 -1.9669376e-17
-134.174 -110.962 468.53799 0.084758699 0.122429 -0.98885101 -1.9669376e-17
-132.778 -111.11 469.79099 0.174619 0.40744501 -0.89638001 -1.9669376e-17
-130.729 -110.799 469.32401 -0.36560699 0.14402699 -0.91955799 -1.9669376e-17
-128.451 -110.396 468.23499 -0.179887 0.20105 -0.96292299 -1.9669376e-17
-126.756 -110.329 468.67801 0.446803 0.14893401 -0.88214898 -1.9669376e-17
-125.307 -110.453 469.798 0.38369301 -0.031110199 -0.92293698 -1.9669376e-17
-123.53 -110.34 470.02301 -0.86201799 0.055975199 -0.50377703 -1.9669376e-17
-116.088 -106.429 454.323 -0.42535499 0.39957601 -0.812042 -1.9669376e-17
-119.157 -109.482 468.12201 0.963588 0.217584 0.155417 -1.9669376e-17
-117.657 -109.635 469.10501 0.50950998 0.431124 -0.74466902 -1.9669376e-17
-116.14 -109.685 470.039 0.43959999 0.31400001 -0.84152001 -1.9669376e-17
-114.527 -109.624 470.69199 0.095063902 -0.32744199 -0.94007701 -1.9669376e-17
-112.553 -109.409 470.29599 0.10711 -0.14605799 -0.98346001 -1.9669376e-17
-110.969 -109.437 471.04501 0.046955101 0.98605698 -0.159647 -1.9669376e-17
-109.311 -109.37 471.56699 -0.083379798 0.99129301 0.101909 -1.9669376e-17
-107.438 -109.186 471.43701 0.95340699 0.051258501 0.297299 -1.9669376e-17
-103.971 -109.009 472.009 0.087535597 0.98234302 0.165345 -1.9669376e-17
-102.179 -108.887 472.103 -0.0553408 0.52020299 -0.85224801 -1.9669376e-17
-100.315 -108.658 471.94299 0.147017 0.37319699 -0.91602898 -1.9669376e-17
-98.740501 -108.724 472.73599 -0.085893698 0.98300499 0.16224401 -1.9669376e-17
-96.883598 -108.474 472.57599 -0.081875697 -0.10007 -0.991606 -1.9669376e-17
-95.025803 -108.345 472.422 -0.087535597 0.98234302 0.165345 -1.9669376e-17
-93.281303 -108.157 472.60901 0.142223 0.339147 -0.92992002 -1.9669376e-17
-91.585701 -108.16 472.99399 -0.098422401 0.99317199 0.062632501 -1.9669376e-17
-89.512901 -107.726 472.01599 -0.14815199 0.14815199 -0.97780502 -1.9669376e-17
-87.8442 -107.73 472.47101 0.091235504 -0.25343201 -0.96304101 -1.9669376e-17
-86.005302 -107.528 472.29401 -0.890863 -0.054991599 -0.45093101 -1.9669376e-17
-79.878098 -103.712 456.181 0.409033 -0.010488 -0.91245902 -1.9669376e-17
-82.823097 -107.533 473.73901 0.98640501 0.14091501 0.084549002 -1.9669376e-17
-80.914101 -107.32 473.28299 -0.033236999 -0.80876797 -0.58718801 -1.9669376e-17
-79.042603 -107.074 472.92999 0.130043 0.62657201 -0.76843703 -1.9669376e-17
-77.538002 -107.11 473.978 0.53273499 0.26017299 -0.80529702 -1.9669376e-17
-75.978302 -107.223 474.86301 -0.0110845 -0.809165 -0.58747602 -1.9669376e-17
-73.819298 -106.695 473.314 -0.138539 0.988244 0.064651497 -1.9669376e-17
-72.070503 -106.598 473.405 0.078404598 -0.88485199 -0.459227 -1.9669376e-17
-70.355003 -106.523 473.62299 -0.025158601 0.997958 0.0587034 -1.9669376e-17
-68.897102 -106.583 474.896 0.14091501 0.98640501 -0.084549002 -1.9669376e-17
-67.354797 -106.753 475.892 -0.88765198 -0.20120101 -0.41423699 -1.9669376e-17
-61.196301 -101.835 456.46301 -0.14091501 0.98640501 0.084549002 -1.9669376e-17
-63.479698 -106.117 474.35599 -0.72513002 -0.623357 -0.29259601 -1.9669376e-17
-50.432301 -70.618896 361.29599 -0.088926002 0.97818601 0.18773299 -1.9669376e-17
-60.214401 -106.041 475.46799 0.98920202 0.103631 0.103631 -1.9669376e-17
-58.315102 -105.743 474.78299 0.98843497 0.0089048203 0.151382 -1.9669376e-17
-68.893898 -115.891 529.89801 0.54743803 -0.128124 -0.82697999 -1.9669376e-17
-55.244202 -105.982 476.883 -0.64760202 0.76121598 -0.034084301 -1.9669376e-17
-53.495201 -105.78 476.87399 -0.099613398 0.431658 -0.89652002 -1.9669376e-17
-51.7024 -105.621 476.66501 -0.21022899 -0.55648899 -0.80381799 -1.9669376e-17
-49.727299 -105.208 475.47198 -0.366689 0.12223 -0.922279 -1.9669376e-17
-47.9417 -105.023 475.228 0.29450899 0.55060399 -0.78108901 -1.9669376e-17
-46.468102 -105.234 476.66 -0.0111727 0.63684201 -0.77091402 -1.9669376e-17
-44.501701 -104.744 475.371 -0.084758699 0.98885101 0.122429 -1.9669376e-17
-43.049099 -104.974 476.95401 0.62231398 0.056573998 -0.78072101 -1.9669376e-17
-41.456902 -105.041 477.79001 0.095063902 0.32744199 -0.94007701 -1.9669376e-17
-39.646801 -104.808 477.353 -0.113487 -0.25792399 -0.95947701 -1.9669376e-17
-37.902802 -104.664 477.285 -0.230358 -0.49708799 -0.83656299 -1.9669376e-17
-35.969101 -104.193 475.995 -0.14893401 0.446803 -0.88214898 -1.9669376e-17
-34.386299 -104.275 476.892 -0.0305884 0.31608 -0.94823903 -1.9669376e-17
-32.515099 -103.95 475.94601 -0.047511399 -0.19954801 -0.97873598 -1.9669376e-17
-30.901699 -103.951 476.634 0.43362099 0.284951 -0.85485399 -1.9669376e-17
-29.302299 -104.082 477.49701 0.13868099 0.046227001 -0.98925799 -1.9669376e-17
-27.5333 -103.819 477.125 0.130703 -0.70104098 -0.70104098 -1.9669376e-17
-25.916201 -103.803 477.82001 0.027184101 -0.154043 -0.98768997 -1.9669376e-17
-24.1063 -103.544 477.14801 0.056924898 -0.69448298 -0.71725303 -1.9669376e-17
-22.486099 -103.652 477.91 0.34914401 -0.32506499 -0.87888002 -1.9669376e-17
-20.8414 -103.618 478.44199 -0.24526601 -0.36206001 -0.89930898 -1.9669376e-17
-18.9195 -103.087 476.737 -0.45027801 0.0768767 -0.88957298 -1.9669376e-17
-17.210501 -102.936 476.702 0.334351 0.242116 -0.91081798 -1.9669376e-17
-15.6489 -103.079 477.939 0.108858 -0.16823401 -0.97971803 -1.9669376e-17
-13.84 -102.794 477.06 -0.14325599 -0.31957 -0.93667102 -1.9669376e-17
-12.1602 -102.716 477.272 0.28751099 0.138431 -0.947721 -1.9669376e-17
-10.5378 -102.764 478.04001 -0.118187 0.063639 -0.99094999 -1.9669376e-17
-8.7269802 -102.323 476.89999 -0.228485 0.42089301 -0.87786299 -1.9669376e-17
-7.0678401 -102.335 477.33701 -0.033384901 -0.79010898 -0.61205602 -1.9669376e-17
-5.27385 -101.976 476.29001 -0.15343 -0.48389599 -0.86157101 -1.9669376e-17
-3.5935199 -101.893 476.43201 0.063639 0.118187 -0.99094999 -1.9669376e-17
-1.90997 -101.807 476.53699 0.179967 -0.49191001 -0.851843 -1.9669376e-17
-0.26777199 -101.748 477.061 0.25792399 -0.113487 -0.95947701 -1.9669376e-17
1.39825 -101.71 477.396 0.085893698 -0.16224401 -0.98300499 -1.9669376e-17
3.09618 -101.587 477.32101 -0.19704901 0.89251798 -0.40569001 -1.9669376e-17
4.8457298 -101.321 476.508 -0.476632 -0.077591203 -0.87567198 -1.9669376e-17
6.6068501 -100.965 475.37601 0.066684797 0.18100201 -0.98121899 -1.9669376e-17
8.1951504 -101.122 476.785 0.53418201 -0.351778 -0.76870102 -1.9669376e-17
9.8225002 -101.222 477.75699 0.29071701 0.26745999 -0.91866702 -1.9669376e-17
11.4953 -101.074 477.88501 0.095214002 -0.00865582 -0.99541903 -1.9669376e-17
13.1789 -101.051 478.05301 0.033236999 0.52071398 -0.85308403 -1.9669376e-17
14.8683 -100.971 478.05301 0.170422 0.35220501 -0.92027599 -1.9669376e-17
16.5124 -100.924 478.758 0.36562699 0.390843 -0.844724 -1.9669376e-17
18.1772 -101.03 479.474 -0.032852199 0.53658599 -0.84320599 -1.9669376e-17
19.8885 -100.718 478.72299 -0.268197 0.60025001 -0.75350499 -1.9669376e-17
21.5697 -100.523 478.60901 0.048909299 -0.96840298 -0.244546 -1.9669376e-17
23.2976 -100.182 477.28799 -0.46630099 0.12510499 -0.87573498 -1.9669376e-17
24.9823 -99.965698 476.896 0.0094749499 0.217924 -0.97592002 -1.9669376e-17
26.6471 -99.968498 477.39899 0.320815 0.320815 -0.89115399 -1.9669376e-17
28.310101 -99.987801 478.05801 0.103631 0.103631 -0.98920202 -1.9669376e-17
29.993601 -99.836899 477.79199 0.114251 -0.0263655 -0.99310201 -1.9669376e-17
31.6553 -99.797302 478.42499 -0.20701 -0.069003202 -0.97590202 -1.9669376e-17
33.348801 -99.447403 477.047 -0.28631601 0.0296189 -0.95767701 -1.9669376e-17
35.018501 -99.411201 477.436 0.134464 0.23789801 -0.96193701 -1.9669376e-17
36.693699 -99.343102 477.54199 0.0297819 -0.26803699 -0.96294802 -1.9669376e-17
38.361599 -99.185501 477.48801 -0.025158601 0.0587034 -0.997958 -1.9669376e-17
40.041302 -99.141899 477.496 -0.95736402 -0.15780701 -0.241971 -1.9669376e-17
41.3592 -94.878899 462.90799 -0.24045999 0.28626201 -0.92748803 -1.9669376e-17
43.3624 -98.689301 476.73999 0.91767502 -0.243939 -0.313636 -1.9669376e-17
45.029701 -98.554604 476.31799 0.083208598 -0.12019 -0.98925799 -1.9669376e-17
46.709599 -98.579201 477.01501 0.0706999 -0.95949799 -0.272699 -1.9669376e-17
48.356701 -98.308098 476.26001 -0.136189 0.045396399 -0.98964202 -1.9669376e-17
50.029701 -98.256897 476.57599 0.0519398 -0.322027 -0.94530499 -1.9669376e-17
51.694801 -98.1576 476.401 -0.33206999 0.356668 -0.87322199 -1.9669376e-17
53.312 -97.756401 475.543 -0.031773198 -0.90024 -0.43423301 -1.9669376e-17
54.9674 -97.644501 475.17899 -0.046101101 -0.156744 -0.98656303 -1.9669376e-17
56.635502 -97.5802 475.35501 0.069711298 -0.96599901 -0.248969 -1.9669376e-17
58.371498 -97.816803 476.80701 0.069711298 -0.96599901 -0.248969 -1.9669376e-17
59.9478 -97.329803 475.26901 -0.12019 0.98925799 0.083208598 -1.9669376e-17
61.617199 -97.281502 475.35699 0.069711298 -0.96599901 -0.248969 -1.9669376e-17
63.259499 -97.086899 475.198 -0.99967003 -0.0081273997 0.0243822 -1.9669376e-17
59.186199 -78.364098 396.229 -0.20701 0.069003202 -0.97590202 -1.9669376e-17
66.531403 -96.740303 474.51401 0.99412698 0.0447805 -0.098517098 -1.9669376e-17
68.194702 -96.708397 474.452 0.0426572 0.0426572 -0.99817902 -1.9669376e-17
69.857498 -96.576103 474.686 -0.568075 0.29034901 -0.77005702 -1.9669376e-17
71.335297 -96.012802 472.37201 -0.152835 -0.83471698 -0.529046 -1.9669376e-17
73.033501 -96.026604 473.005 -0.097441196 0.37893799 -0.92027801 -1.9669376e-17
74.6091 -95.728203 472.172 -0.20343301 -0.224847 -0.95292097 -1.9669376e-17
76.270897 -95.693199 472.24899 0.055975199 -0.50377703 -0.86201799 -1.9669376e-17
77.924103 -95.603203 472.30399 -0.31068501 -0.41010401 -0.85749 -1.9669376e-17
79.438301 -95.228302 470.89999 -0.446803 -0.14893401 -0.88214898 -1.9669376e-17
81.043602 -95.002296 470.62 0.213965 0.0093028303 -0.97679698 -1.9669376e-17
82.790802 -95.106796 471.62601 0.248969 0.069711298 -0.96599901 -1.9669376e-17
84.427498 -95.010002 471.495 -0.0090376604 -0.171716 -0.98510498 -1.9669376e-17
86.090401 -94.977402 471.582 0.069003202 -0.20701 -0.97590202 -1.9669376e-17
87.751099 -94.884201 471.733 0.105096 -0.14331301 -0.98408097 -1.9669376e-17
89.419098 -94.828102 471.892 0.18538301 0.63030201 -0.75389099 -1.9669376e-17
91.1548 -94.878403 472.59601 0.248969 0.069711298 -0.96599901 -1.9669376e-17
92.821098 -94.775902 472.759 -0.16903099 -0.37186801 -0.91276699 -1.9669376e-17
94.366699 -94.566299 471.85901 -0.54816902 0.182723 -0.816163 -1.9669376e-17
95.866096 -94.184601 470.82401 -0.37656 0.48043799 -0.79207402 -1.9669376e-17
97.492996 -94.073799 470.66699 -0.0093028303 -0.213965 -0.97679698 -1.9669376e-17
99.161697 -94.047096 470.78101 0.050561801 -0.960675 -0.27303401 -1.9669376e-17
100.716 -93.7463 470.24701 -0.208829 -0.52821398 -0.82303101 -1.9669376e-17
102.273 -93.548698 469.63699 -0.11016 -0.21030501 -0.97140998 -1.9669376e-17
103.943 -93.500198 469.802 -0.53016901 0.056400899 -0.84601402 -1.9669376e-17
105.282 -93.055199 467.79501 -0.52917498 -0.374295 -0.76149601 -1.9669376e-17
106.865 -92.855797 467.50299 -0.302266 -0.212706 -0.92918903 -1.9669376e-17
108.373 -92.605598 466.72 -0.0726218 0.32161099 -0.94408298 -1.9669376e-17
110.111 -92.634201 467.345 0.081875697 0.10007 -0.991606 -1.9669376e-17
111.687 -92.488701 466.97501 0.236884 -0.259444 -0.93625599 -1.9669376e-17
113.544 -92.667397 468.21701 -0.0519398 0.322027 -0.94530499 -1.9669376e-17
114.936 -92.216698 466.909 -0.84102601 0.20720901 -0.49974 -1.9669376e-17
116.119 -91.656601 464.392 -0.538454 -0.103108 -0.83632302 -1.9669376e-17
117.849 -91.678398 464.939 -0.32811901 0.0099429898 -0.94458401 -1.9669376e-17
119.164 -91.211998 463.32599 -0.59195203 -0.35517099 -0.72349602 -1.9669376e-17
120.6 -90.938301 462.341 -0.47733599 0.055504199 -0.876966 -1.9669376e-17
122.106 -90.769302 461.72299 0.0101792 0.37663099 -0.92630798 -1.9669376e-17
123.856 -90.762604 462.41901 -0.361963 -0.41188899 -0.83626002 -1.9669376e-17
125.017 -90.184601 460.20001 -0.53081 -0.12975299 -0.83749902 -1.9669376e-17
126.704 -90.1698 460.54001 -0.503021 -0.078247704 -0.86072499 -1.9669376e-17
127.893 -89.717697 458.49899 -0.37656 -0.48043799 -0.79207402 -1.9669376e-17
129.56599 -89.668503 458.80899 -0.010256 -0.35896 -0.93329698 -1.9669376e-17
131.078 -89.5019 458.353 -0.68824703 -0.49931699 -0.52630699 -1.9669376e-17
131.914 -88.719597 454.896 -0.65822297 0.0577389 -0.75060499 -1.9669376e-17
133.77 -88.868599 456.03 0.080364302 -0.53958899 -0.838085 -1.9669376e-17
135.164 -88.606003 455.129 -0.34941399 -0.50470901 -0.78941703 -1.9669376e-17
136.62199 -88.4384 454.50201 -0.40439799 -0.28185299 -0.87006903 -1.9669376e-17
138.008 -88.118698 453.66199 -0.503021 -0.078247704 -0.86072499 -1.9669376e-17
139.40601 -87.874496 452.854 -0.91556799 0.053856902 -0.398541 -1.9669376e-17
140.062 -87.011299 449.073 -0.49471101 -0.862867 -0.103544 -1.9669376e-17
126.056 -72.9291 390.965 -0.074070998 -0.32802901 -0.94175899 -1.9669376e-17
143.117 -86.726799 448.70099 0.95061803 0.0100065 -0.310202 -1.9669376e-17
144.188 -86.270798 446.729 -0.092537999 -0.95622599 -0.277614 -1.9669376e-17
145.05299 -85.616997 444.056 -0.44340301 -0.57776701 -0.68525898 -1.9669376e-17
146.75999 -85.688698 444.586 -0.066684797 0.98121899 0.18100201 -1.9669376e-17
147.84399 -85.212799 442.832 -0.0943923 -0.95441097 -0.28317699 -1.9669376e-17
148.82001 -84.698196 440.711 -0.0296189 -0.95767701 -0.28631601 -1.9669376e-17
150.256 -84.518303 440.319 0.053388201 -0.416428 -0.90759999 -1.9669376e-17
151.955 -84.6091 440.82999 -0.78853101 -0.15770601 -0.59443098 -1.9669376e-17
152.464 -83.737099 437.20401 -0.96304101 -0.091235504 -0.25343201 -1.9669376e-17
153.364 -83.251701 434.98499 -0.84472501 -0.078841001 -0.52936101 -1.9669376e-17
154.532 -82.901802 433.767 -0.35300699 -0.096274599 -0.93065399 -1.9669376e-17
156.11 -82.9161 433.93399 -0.75796902 -0.346867 -0.55241799 -1.9669376e-17
156.554 -82.032204 430.371 -0.40439799 -0.87006903 -0.28185299 -1.9669376e-17
157.354 -81.506897 428.021 -0.89108199 0.150442 -0.42818201 -1.9669376e-17
158.45599 -81.212402 426.70901 0.218477 -0.35646299 -0.90840602 -1.9669376e-17
-190.84 -115.365 472.96201 -0.25385001 -0.071077898 -0.96462899 -1.9669376e-17
-189.06599 -115.361 473.45499 -0.0637656 -0.100203 -0.99292201 -1.9669376e-17
-186.634 -114.912 472.633 -0.302297 0.093816198 -0.94858599 -1.9669376e-17
-184.345 -114.593 472.07401 -0.246941 -0.161048 -0.95555401 -1.9669376e-17
-181.927 -114.181 471.23199 -0.162478 -0.29246101 -0.94237298 -1.9669376e-17
-179.907 -114.023 471.18399 -0.0103969 0.42627501 -0.90453398 -1.9669376e-17
-177.98599 -113.844 471.32901 -0.221945 -0.0289494 -0.97462898 -1.9669376e-17
-175.41 -113.347 470.095 -0.241971 0.15780701 -0.95736402 -1.9669376e-17
-173.556 -113.244 470.35599 0.98510498 -0.0090376604 -0.171716 -1.9669376e-17
-174.442 -112.809 475.77399 -0.077949099 0.043305099 -0.99601603 -1.9669376e-17
-169.494 -112.773 470.09299 -0.60905403 0.47370899 -0.636123 -1.9669376e-17
-166.896 -112.257 468.71399 -0.79174501 -0.057372801 -0.60815197 -1.9669376e-17
-162.024 -105.112 459.479 -0.0083791399 0.075412199 -0.99711698 -1.9669376e-17
-163.46001 -110.088 468.84799 0.39845899 0.88143897 0.25356501 -1.9669376e-17
-162.894 -107.583 469.33099 0.92642403 0.053242698 0.37269899 -1.9669376e-17
-175 -112.557 498.552 0.59598798 0.748155 0.29165399 -1.9669376e-17
-162.218 -112.012 479.535 -0.79078102 -0.28869799 -0.53973901 -1.9669376e-17
-155.601 -111.407 469.508 -0.025158601 0.997958 0.0587034 -1.9669376e-17
-153.59599 -111.201 469.32901 -0.156877 0.80852097 -0.56717098 -1.9669376e-17
-151.558 -110.89 469.04901 0.94530499 0.0519398 0.322027 -1.9669376e-17
-166.52299 -117.618 507.927 -0.16586 0.29854801 -0.93987203 -1.9669376e-17
-147.48 -110.394 468.448 -0.876966 -0.055504199 -0.47733599 -1.9669376e-17
-145.757 -110.35 468.892 0.15947901 0.065667696 -0.98501498 -1.9669376e-17
-143.89999 -110.234 469.005 -0.0726218 0.32161099 -0.94408298 -1.9669376e-17
-141.895 -109.984 468.73801 -0.0101331 0.33439299 -0.942379 -1.9669376e-17
-140.125 -109.897 469.048 0.065853402 0.141114 -0.98780102 -1.9669376e-17
-138.218 -109.71 469.00299 -0.19704901 0.40569001 -0.89251798 -1.9669376e-17
-136.10899 -109.411 468.42999 0.061710499 0.061710499 -0.996185 -1.9669376e-17
-134.549 -109.435 469.25101 0.32728001 0.641469 -0.69383401 -1.9669376e-17
-132.93401 -109.391 469.93201 -0.043305099 -0.077949099 -0.99601603 -1.9669376e-17
-130.72301 -109.028 469.048 -0.0259986 0.077995896 -0.99661499 -1.9669376e-17
-129.15401 -109.048 469.849 0.208829 0.52821398 -0.82303101 -1.9669376e-17
-127.323 -108.942 469.952 -0.24603499 0.181852 -0.95204902 -1.9669376e-17
-125.071 -108.492 468.88501 -0.126632 0.126632 -0.98383403 -1.9669376e-17
-123.44 -108.507 469.50699 0.39013001 0.248264 -0.88665903 -1.9669376e-17
-121.867 -108.491 470.28699 0.00799949 0.99993598 0.00799949 -1.9669376e-17
-120.31 -108.561 471.12799 0.156332 0.66140401 -0.73355699 -1.9669376e-17
-118.457 -108.363 471.12 -0.0726218 0.32161099 -0.94408298 -1.9669376e-17
-116.561 -108.213 470.98901 -0.39592701 0.275949 -0.87583899 -1.9669376e-17
-114.177 -107.626 469.39499 -0.134464 0.23789801 -0.96193701 -1.9669376e-17
-112.723 -107.82 470.534 0.97187001 0.194374 0.132993 -1.9669376e-17
-116.078 -108.866 484.43701 0.95949799 0.0706999 0.272699 -1.9669376e-17
-107.259 -107.277 470.60101 -0.92630798 0.0101792 -0.37663099 -1.9669376e-17
-111.597 -108.956 487.798 0.085893698 -0.98300499 -0.16224401 -1.9669376e-17
-103.701 -107.016 470.86401 -0.68724698 -0.55249202 -0.47163999 -1.9669376e-17
-102.206 -107.117 471.89801 0.151997 -0.45599201 -0.876908 -1.9669376e-17
-100.236 -106.827 471.39401 -0.0284146 -0.21784601 -0.97557002 -1.9669376e-17
-98.530602 -106.789 471.75101 -0.098517098 0.99412698 -0.0447805 -1.9669376e-17
-96.578102 -106.472 471.26099 0.138431 -0.28751099 -0.947721 -1.9669376e-17
-95.042999 -106.547 472.173 0.172573 -0.37966201 -0.90888703 -1.9669376e-17
-93.152298 -106.332 471.87601 -0.050561801 -0.27303401 -0.960675 -1.9669376e-17
-91.340797 -106.16 471.82999 0.33997899 -0.41553 -0.84365201 -1.9669376e-17
-89.924004 -106.374 473.17899 0.23213901 0.52536798 -0.81859601 -1.9669376e-17
-88.031097 -106.046 472.814 -0.217217 0.30867699 -0.92603201 -1.9669376e-17
-86.129303 -105.873 472.43301 0.0577389 -0.75060499 -0.65822297 -1.9669376e-17
-84.443497 -105.768 472.79901 0.025586899 0.99788803 0.059702698 -1.9669376e-17
-83.150101 -106.097 474.65601 -0.79863697 0.0109402 -0.601713 -1.9669376e-17
-79.125 -103.84 465.92899 -0.0297819 0.26803699 -0.96294802 -1.9669376e-17
-79.572899 -105.759 474.64401 0.98121899 0.066684797 -0.18100201 -1.9669376e-17
-77.612503 -105.457 473.953 -0.82687598 -0.011025 -0.56227601 -1.9669376e-17
-74.059998 -103.297 466.48499 0.153005 0.96903503 0.19380701 -1.9669376e-17
-88.158302 -113.575 525.37402 -0.730349 0.26907599 -0.62784398 -1.9669376e-17
-69.4674 -101.801 461.83701 -0.94458401 -0.0099429898 -0.32811901 -1.9669376e-17
-70.176804 -104.345 472.20001 0.95521998 0.0502747 0.291594 -1.9669376e-17
-82.360703 -103.429 505.25 0.075930104 -0.92200899 -0.37965101 -1.9669376e-17
-66.311401 -103.449 470.83701 0.192352 -0.91649801 -0.350759 -1.9669376e-17
-80.644798 -114.867 536.52502 0.970631 0.070045501 0.23015 -1.9669376e-17
-77.651398 -106.785 521.03003 0.36751401 0.889148 0.272672 -1.9669376e-17
-60.3064 -104.41 475.53 -0.75452 -0.48977599 -0.43682799 -1.9669376e-17
-66.537903 -102.525 497.42999 0.0563436 -0.80007899 -0.597242 -1.9669376e-17
-56.7826 -104.1 475.44699 -0.188436 -0.94217902 -0.27711099 -1.9669376e-17
-53.6502 -104.217 477.26099 -0.947721 -0.138431 -0.28751099 -1.9669376e-17
-51.228901 -103.022 473.72101 -0.129537 -0.600582 -0.78899997 -1.9669376e-17
-49.972099 -103.767 476.34698 0.75293899 0.51516902 -0.409493 -1.9669376e-17
-48.474201 -103.881 477.63101 0.13197599 -0.61188698 -0.77985698 -1.9669376e-17
-46.557598 -103.516 476.694 0.98510498 0.0090376604 0.171716 -1.9669376e-17
-43.062401 -103.279 476.60999 -0.97174102 -0.0094343796 -0.23586001 -1.9669376e-17
-41.481899 -103.319 477.48999 -0.034084301 -0.76121598 -0.64760202 -1.9669376e-17
-39.458 -102.759 475.76199 -0.673181 0.0110358 -0.73939502 -1.9669376e-17
-37.4366 -102.403 473.776 0.286717 -0.51110399 -0.810287 -1.9669376e-17
-36.185299 -102.715 476.853 0.55861199 0.61311102 -0.55861199 -1.9669376e-17
-34.413799 -102.597 476.60501 -0.20024399 -0.20024399 -0.95906401 -1.9669376e-17
-32.6031 -102.335 476.03299 0.291594 0.0502747 -0.95521998 -1.9669376e-17
-31.1213 -102.524 477.60199 0.060645301 -0.060645301 -0.996315 -1.9669376e-17
-29.195499 -102.063 476.20001 -0.79274201 -0.207332 -0.57321298 -1.9669376e-17
-26.819799 -100.991 471.23999 0.15597101 -0.75586098 -0.63588297 -1.9669376e-17
-25.870199 -101.98 476.957 0.67689502 -0.130629 -0.72439599 -1.9669376e-17
-23.8155 -101.495 474.19601 0.0447805 0.098517098 -0.99412698 -1.9669376e-17
-22.458401 -101.823 477.12 0.71281201 0.132897 -0.688649 -1.9669376e-17
-20.780199 -101.655 477.323 0.121216 -0.38568801 -0.91463202 -1.9669376e-17
-19.081699 -101.558 477.42599 0.067699999 0.2031 -0.97681499 -1.9669376e-17
-17.3944 -101.45 477.595 -0.302266 0.212706 -0.92918903 -1.9669376e-17
-15.5408 -101.102 476.37201 -0.212706 -0.302266 -0.92918903 -1.9669376e-17
-13.868 -101.084 476.668 0.38568801 -0.121216 -0.91463202 -1.9669376e-17
-12.2834 -101.141 477.711 0.0105958 0.43442801 -0.900644 -1.9669376e-17
-10.4928 -100.822 476.86499 0.05872 0.0083885603 -0.99823898 -1.9669376e-17
-8.9040403 -100.88 477.91599 -0.85224801 0.0553408 -0.52020299 -1.9669376e-17
-6.5300202 -98.851501 470.57501 -0.69520497 -0.034190401 -0.71799803 -1.9669376e-17
-5.1823702 -99.708298 474.29599 0.90127897 0.339443 -0.26921299 -1.9669376e-17
-3.7759099 -100.541 477.685 0.223746 -0.412164 -0.88320899 -1.9669376e-17
-1.87214 -99.782303 475.14499 -0.41423699 -0.20120101 -0.88765198 -1.9669376e-17
-0.24269401 -99.817802 475.83701 0.36562699 -0.44127399 -0.81950903 -1.9669376e-17
1.38503 -99.8564 476.58801 0.386051 -0.198875 -0.90078503 -1.9669376e-17
3.0306599 -99.9804 477.29001 0.36560699 -0.14402699 -0.91955799 -1.9669376e-17
4.6747699 -99.973801 477.90799 0.105114 0.54892898 -0.82923299 -1.9669376e-17
6.3713598 -99.841499 477.82401 -0.53096902 0.58542699 -0.612656 -1.9669376e-17
8.1957903 -99.1716 475.55499 -0.077949099 0.043305099 -0.99601603 -1.9669376e-17
9.7509699 -99.461998 477.603 0.56096798 -0.261785 -0.78535497 -1.9669376e-17
11.4203 -99.477699 478.00101 0.223746 0.412164 -0.88320899 -1.9669376e-17
13.087 -99.4851 478.44501 0.14877801 0.400556 -0.90411299 -1.9669376e-17
14.7617 -99.375999 478.629 0.0426572 -0.0426572 -0.99817902 -1.9669376e-17
16.4482 -99.243797 478.60501 0.233233 -0.233233 -0.94403702 -1.9669376e-17
18.0998 -99.305298 479.444 0.45093101 -0.054991599 -0.890863 -1.9669376e-17
19.748699 -99.2976 480.28 -0.359312 0.119771 -0.92549998 -1.9669376e-17
21.514601 -98.796799 478.18399 -0.53273499 -0.26017299 -0.80529702 -1.9669376e-17
23.2159 -98.673302 477.78699 0.0097446302 0.26310501 -0.96471798 -1.9669376e-17
24.872601 -98.585701 478.297 0.46157899 0.20120101 -0.86398101 -1.9669376e-17
26.531 -98.790497 479.569 -0.0085091703 -0.093600899 -0.99557298 -1.9669376e-17
28.228201 -98.315903 478.263 -0.398541 -0.053856902 -0.91556799 -1.9669376e-17
29.910601 -98.1632 478.04199 -0.14815199 0.14815199 -0.97780502 -1.9669376e-17
31.59 -98.006401 477.82101 0.0091704503 -0.19258 -0.98123902 -1.9669376e-17
33.269402 -97.988403 478.05399 0.0982273 0.360167 -0.92770201 -1.9669376e-17
34.952 -97.9729 478.215 -0.18277501 0.22578 -0.95687902 -1.9669376e-17
36.622501 -97.669899 477.491 -0.060645301 0.060645301 -0.996315 -1.9669376e-17
38.299198 -97.6903 478.043 -0.339147 -0.142223 -0.92992002 -1.9669376e-17
39.954102 -97.160698 476.203 -0.27711099 0.188436 -0.94217902 -1.9669376e-17
41.626301 -97.202904 477.12799 -0.2031 0.97681499 0.067699999 -1.9669376e-17
43.136501 -96.364601 473.522 -0.117454 0.28829601 -0.95030999 -1.9669376e-17
44.912899 -97.227097 476.68701 -0.819399 -0.55814099 -0.130629 -1.9669376e-17
43.776699 -75.473 385.90701 0.0098195104 0.304405 -0.952492 -1.9669376e-17
48.308998 -96.822197 476.866 0.99721402 0.0433571 -0.060699999 -1.9669376e-17
49.9263 -96.361397 475.66299 -0.116711 0.307693 -0.9443 -1.9669376e-17
51.625198 -96.484703 476.59601 -0.15358201 0.174059 -0.97268498 -1.9669376e-17
53.2318 -96.042397 475.202 -0.37269899 0.053242698 -0.92642403 -1.9669376e-17
54.903198 -96.010902 475.30399 -0.99880201 -0.041966502 0.0251799 -1.9669376e-17
54.735802 -75.354202 389.52499 0.75023299 -0.627244 -0.20908099 -1.9669376e-17
58.123402 -83.062798 414.82401 0.995875 0.0440653 -0.079317503 -1.9669376e-17
63.439098 -96.779404 480.34399 0.715469 -0.66526002 -0.213385 -1.9669376e-17
64.799202 -95.150703 474.42401 -0.153005 0.96903503 0.19380701 -1.9669376e-17
66.468498 -95.116798 474.51001 -0.132993 0.194374 -0.97187001 -1.9669376e-17
68.094803 -94.941498 474.039 -0.032062199 0.41680801 -0.90842903 -1.9669376e-17
69.7771 -94.8964 474.45801 0.221224 -0.179086 -0.95863903 -1.9669376e-17
71.463203 -94.8881 474.79199 -0.34941399 0.50470901 -0.78941703 -1.9669376e-17
72.992104 -94.416298 473.35999 -0.75044399 0.0112007 -0.66083902 -1.9669376e-17
74.470802 -93.868896 471.431 -0.48965901 0.20302901 -0.84794599 -1.9669376e-17
76.144897 -93.860001 471.685 -0.134464 0.23789801 -0.96193701 -1.9669376e-17
77.739601 -93.683998 471.04599 -0.12642001 -0.448217 -0.88494098 -1.9669376e-17
79.398399 -93.6493 471.12299 0.160165 -0.26694101 -0.95030999 -1.9669376e-17
81.081703 -93.603996 471.55301 0.0259597 -0.095185503 -0.995121 -1.9669376e-17
82.683601 -93.3965 471.17001 -0.23545 -0.28029799 -0.93058902 -1.9669376e-17
84.262703 -93.153297 470.59799 0.15780701 0.241971 -0.95736402 -1.9669376e-17
86.036201 -93.313599 471.71899 0.449651 -0.230902 -0.86284298 -1.9669376e-17
87.773499 -93.365402 472.50601 -0.0085091703 0.99557298 0.093600899 -1.9669376e-17
89.4888 -93.390602 473.021 0.081875697 0.10007 -0.991606 -1.9669376e-17
91.116798 -93.270699 472.785 -0.25847501 -0.093050897 -0.96152598 -1.9669376e-17
92.680298 -93.009201 472.117 -0.390818 0.052813299 -0.91895097 -1.9669376e-17
94.249298 -92.816704 471.44699 0.0305884 0.31608 -0.94823903 -1.9669376e-17
96.008003 -92.882301 472.27499 -0.37279099 0.30063799 -0.87786299 -1.9669376e-17
97.383301 -92.373398 470.28201 -0.99494803 -0.026414599 0.096853398 -1.9669376e-17
100.502 -91.882797 469.19601 0.98053801 0.0093384599 -0.196108 -1.9669376e-17
102.171 -91.860603 469.332 0.088580802 -0.206689 -0.97438902 -1.9669376e-17
103.841 -91.838203 469.46799 -0.60864699 -0.349648 -0.712246 -1.9669376e-17
105.026 -91.158203 466.534 -0.61621797 0.26409301 -0.74197698 -1.9669376e-17
106.766 -91.180801 467.22198 0.55814099 0.130629 -0.819399 -1.9669376e-17
108.702 -91.475197 469.03299 0.128124 0.54743803 -0.82697999 -1.9669376e-17
110.128 -91.089897 467.77701 -0.645464 0.408355 -0.645464 -1.9669376e-17
111.563 -90.732697 466.61301 -0.44612199 -0.39513701 -0.80302 -1.9669376e-17
113.077 -90.5345 465.88699 -0.079819098 -0.58153898 -0.80959302 -1.9669376e-17
114.746 -90.460297 466.11801 -0.242116 -0.334351 -0.91081798 -1.9669376e-17
116.161 -90.1446 464.89999 -0.48043799 0.37656 -0.79207402 -1.9669376e-17
117.734 -90.059799 464.53101 -0.334068 0.096987501 -0.93754601 -1.9669376e-17
119.216 -89.734398 463.836 -0.391168 -0.031716298 -0.91977298 -1.9669376e-17
120.721 -89.507103 463.21799 -0.164736 0.31848899 -0.93350202 -1.9669376e-17
122.386 -89.491203 463.38501 -0.773974 0.406665 -0.485374 -1.9669376e-17
123.284 -88.656998 459.793 -0.59525698 -0.43652201 -0.67462403 -1.9669376e-17
125.025 -88.658203 460.444 0.148559 0.12875099 -0.98048598 -1.9669376e-17
126.618 -88.559303 460.323 -0.75848597 -0.132434 -0.63809103 -1.9669376e-17
127.575 -87.873596 457.207 -0.77052897 0.033501301 -0.63652402 -1.9669376e-17
129.201 -87.870201 457.25101 -0.166924 -0.34497699 -0.92364901 -1.9669376e-17
130.647 -87.596497 456.556 -0.30282399 0.073095299 -0.950239 -1.9669376e-17
132.19501 -87.466499 456.306 -0.720016 0.40582699 -0.562922 -1.9669376e-17
133.211 -86.802803 453.78101 -0.52071398 0.033236999 -0.85308403 -1.9669376e-17
135.01199 -86.939301 454.63699 -0.358172 -0.196417 -0.91276097 -1.9669376e-17
136.119 -86.431297 452.55899 -0.322025 -0.52812099 -0.78574097 -1.9669376e-17
137.851 -86.464996 453.14899 -0.15472899 -0.511796 -0.84505898 -1.9669376e-17
139.133 -86.141403 451.85599 -0.97557002 -0.0284146 0.21784601 -1.9669376e-17
141.444 -85.245903 448.42401 0.84434003 0.52048302 -0.12722901 -1.9669376e-17
143.20799 -85.294098 449.17401 -0.39241701 -0.90816498 -0.14575499 -1.9669376e-17
130.515 -72.403397 396.95099 -0.049853101 -0.96715099 -0.249266 -1.9669376e-17
145.23599 -84.283501 444.84299 0.271303 -0.90827399 -0.31848601 -1.9669376e-17
146.78 -84.182503 444.772 -0.97679698 0.0093028303 0.213965 -1.9669376e-17
136.961 -74.036903 404.961 -0.97592002 -0.0094749499 0.217924 -1.9669376e-17
136.49899 -73.069603 398.62201 0.42063001 -0.82851303 -0.36964399 -1.9669376e-17
149.81599 -82.719299 438.80899 0.93964398 0.030977299 -0.34075001 -1.9669376e-17
151.522 -82.792397 439.37399 -0.390843 -0.36562699 -0.844724 -1.9669376e-17
152.491 -82.287102 437.367 -0.77904803 0.52362198 -0.34482399 -1.9669376e-17
153.60001 -81.9673 435.85501 -0.391341 0.820553 -0.41658801 -1.9669376e-17
155.119 -81.807999 435.85101 -0.68230897 0.60203701 -0.41473699 -1.9669376e-17
155.854 -81.2173 433.151 -0.98843497 0.0089048203 0.151382 -1.9669376e-17
152.39999 -76.8246 417.42599 -0.898283 0.077629402 -0.432506 -1.9669376e-17
157.769 -80.348503 429.42499 0.843611 0.010956 -0.536843 -1.9669376e-17
158.489 -79.787903 426.85699 0.432506 -0.077629402 -0.898283 -1.9669376e-17
-190.89999 -113.588 472.82101 0.95525199 0.26243201 0.136465 -1.9669376e-17
-188.78101 -113.396 472.634 -0.076693699 -0.0085215196 -0.99701798 -1.9669376e-17
-186.69701 -113.111 472.49899 0.70104098 -0.130703 -0.70104098 -1.9669376e-17
-186.105 -113.703 475.36099 -0.310078 -0.0300075 -0.95023799 -1.9669376e-17
-181.897 -112.366 470.91501 -0.54892898 0.105114 -0.82923299 -1.9669376e-17
-180.271 -112.408 471.67499 -0.040615499 0.0081230998 -0.99914199 -1.9669376e-17
-177.836 -111.928 470.76099 -0.13387001 -0.026774 -0.990637 -1.9669376e-17
-176.01801 -111.902 471.11401 -0.0305884 0.31608 -0.94823903 -1.9669376e-17
-173.85899 -111.579 470.73801 -0.15685 0.027679499 -0.987234 -1.9669376e-17
-171.76401 -111.295 470.48099 0.0107564 -0.84975702 -0.52706498 -1.9669376e-17
-169.57201 -111.041 470.009 -0.19258 0.0091704503 -0.98123902 -1.9669376e-17
-167.44501 -110.771 469.65201 -0.104376 0.521882 -0.84660798 -1.9669376e-17
-165.532 -110.613 469.74899 -0.87583899 -0.275949 -0.39592701 -1.9669376e-17
-171.99699 -114.153 492.12 -0.55556399 0.82767701 -0.079366297 -1.9669376e-17
-177.453 -111.167 501.16199 0.88278502 0.032695699 0.46863899 -1.9669376e-17
-156.34 -102.293 461.95401 -0.287792 -0.83835202 -0.46296999 -1.9669376e-17
-172.35899 -115.484 505.67499 0.98780102 0.141114 0.065853402 -1.9669376e-17
-156.32201 -109.218 474.64499 -0.86072499 -0.078247704 -0.503021 -1.9669376e-17
-151.254 -108.936 468.082 -0.63652402 0.033501301 -0.77052897 -1.9669376e-17
-149.838 -109.092 469.26599 0.090312101 -0.973364 -0.210728 -1.9669376e-17
-147.783 -108.786 468.92099 -0.145172 0.34617999 -0.92686802 -1.9669376e-17
-145.832 -108.675 468.823 0.097441196 0.37893799 -0.92027801 -1.9669376e-17
-144.14999 -108.562 469.35599 0.084549002 0.14091501 -0.98640501 -1.9669376e-17
-142.17599 -108.385 469.17899 -0.271303 -0.31848601 -0.90827399 -1.9669376e-17
-139.73801 -107.868 467.81799 -0.0259986 -0.077995896 -0.99661499 -1.9669376e-17
-138.33 -107.992 469.02499 0.504255 0.258277 -0.824027 -1.9669376e-17
-136.689 -107.979 469.65201 0.46530801 0.33954901 -0.81743199 -1.9669376e-17
-135.22301 -108.069 470.733 -0.0726218 0.32161099 -0.94408298 -1.9669376e-17
-132.87601 -107.592 469.51999 -0.272699 0.0706999 -0.95949799 -1.9669376e-17
-131.032 -107.456 469.603 0.111832 0.233831 -0.96582401 -1.9669376e-17
-129.3 -107.337 469.96899 -0.0433571 -0.060699999 -0.99721402 -1.9669376e-17
-127.214 -107.091 469.39099 0.103411 -0.122213 -0.98710197 -1.9669376e-17
-125.687 -107.139 470.306 0.322025 0.52812099 -0.78574097 -1.9669376e-17
-123.984 -107.064 470.741 -0.26559901 0.31178999 -0.912274 -1.9669376e-17
-121.64 -106.533 469.37701 -0.077995896 0.0259986 -0.99661499 -1.9669376e-17
-120.154 -106.685 470.41901 0.226142 -0.44038299 -0.86886299 -1.9669376e-17
-118.228 -106.442 470.194 0.25847501 -0.093050897 -0.96152598 -1.9669376e-17
-116.766 -106.577 471.30899 0.38369301 -0.031110199 -0.92293698 -1.9669376e-17
-114.995 -106.463 471.52899 0.212318 0.611974 -0.76184601 -1.9669376e-17
-113.42 -106.482 472.32199 0.047511399 0.19954801 -0.97873598 -1.9669376e-17
-111.387 -106.175 471.742 0.093816198 -0.94858599 -0.302297 -1.9669376e-17
-109.806 -106.198 472.51901 0.069003202 -0.97590202 -0.20701 -1.9669376e-17
-108.314 -106.323 473.58499 -0.16903099 0.37186801 -0.91276699 -1.9669376e-17
-105.969 -105.762 471.98401 -0.70206398 -0.51661301 -0.49011999 -1.9669376e-17
-98.658699 -99.598602 453.341 -0.42479101 0.45053601 -0.78522003 -1.9669376e-17
-101.744 -105.029 470.13199 0.98925799 0.083208598 0.12019 -1.9669376e-17
-100.246 -105.119 471.146 0.97187001 0.132993 0.194374 -1.9669376e-17
-96.747597 -104.894 471.54199 -0.90842903 0.032062199 -0.41680801 -1.9669376e-17
-94.748199 -104.557 470.87799 -0.033059001 0.56200302 -0.82647401 -1.9669376e-17
-93.154503 -104.629 471.595 0.054991599 0.45093101 -0.890863 -1.9669376e-17
-91.255699 -104.342 471.233 0.465592 0.651829 -0.59861797 -1.9669376e-17
-90.181198 -104.763 473.767 0.64485699 0.18250699 -0.742194 -1.9669376e-17
-88.349701 -104.585 473.65399 -0.82033002 0.080877602 -0.56614298 -1.9669376e-17
-84.552002 -101.881 466.06299 0.236706 -0.735035 -0.635369 -1.9669376e-17
-85.111603 -104.635 474.96201 0.97533 0.191044 -0.110604 -1.9669376e-17
-83.092697 -104.223 474.10599 -0.15608899 -0.197713 -0.96775299 -1.9669376e-17
-81.332497 -104.109 474.215 -0.118187 0.99094999 0.063639 -1.9669376e-17
-79.232697 -103.706 473.00699 0.030977299 -0.34075001 -0.93964398 -1.9669376e-17
-77.774498 -103.845 474.258 0.97288197 0.049135499 0.226023 -1.9669376e-17
-74.497597 -103.77 475.37399 -0.641469 -0.69383401 -0.32728001 -1.9669376e-17
-72.555603 -103.503 474.707 -0.15685 0.987234 -0.027679499 -1.9669376e-17
-70.651604 -103.22 474.151 -0.92770201 0.0982273 -0.360167 -1.9669376e-17
-64.747299 -98.697601 456.14099 0.91977298 0.031716298 0.391168 -1.9669376e-17
-63.0737 -98.454201 456.13599 0.66371101 0.73611599 -0.132742 -1.9669376e-17
-62.504799 -99.7444 461.263 -0.114071 -0.96441698 -0.23851199 -1.9669376e-17
-63.268902 -102.543 472.564 0.72877502 -0.683927 0.033635799 -1.9669376e-17
-64.745903 -101.204 482.25299 -0.64693397 0.76043099 0.056748599 -1.9669376e-17
-57.937698 -97.383301 462.134 -0.876966 -0.055504199 -0.47733599 -1.9669376e-17
-57.158001 -100.634 468.08301 -0.56096798 -0.78535497 -0.261785 -1.9669376e-17
-56.682499 -102.358 474.41901 -0.537431 0.179144 -0.82406098 -1.9669376e-17
-53.215401 -99.920097 465.71701 0.067699999 -0.97681499 -0.2031 -1.9669376e-17
-52.903198 -101.823 473.00299 0.96840298 -0.048909299 -0.244546 -1.9669376e-17
-51.282398 -101.628 473.46201 0.59256798 0.769077 -0.239549 -1.9669376e-17
-50.393799 -102.34 477.759 -0.433557 0.199202 -0.878833 -1.9669376e-17
-47.487701 -100.577 471.80301 -0.81231499 -0.20611 -0.54558498 -1.9669376e-17
-45.2589 -99.776802 469.02899 0.58244801 -0.057102799 -0.81085998 -1.9669376e-17
-44.4436 -100.771 473.996 0.0484115 -0.97791302 -0.203328 -1.9669376e-17
-43.645802 -101.835 479.26901 -0.476632 0.077591203 -0.87567198 -1.9669376e-17
-40.631199 -100.21 471.996 -0.12763999 -0.87027103 -0.475748 -1.9669376e-17
-39.840302 -101.524 477.578 0.484043 0.45787799 -0.74568802 -1.9669376e-17
-37.66 -99.807198 474.23499 0.34674001 -0.27500099 -0.89674199 -1.9669376e-17
-36.595299 -101.172 478.73001 0.055724401 -0.83586502 -0.54609901 -1.9669376e-17
-34.421902 -100.831 476.16299 -0.14877801 -0.90411299 -0.400556 -1.9669376e-17
-32.688702 -100.672 476.08301 0.097441196 -0.92027801 -0.37893799 -1.9669376e-17
-31.028299 -100.579 476.45099 0.079122603 -0.87034798 -0.48603901 -1.9669376e-17
-29.2726 -100.42 476.21201 -0.57363898 -0.493597 -0.65368199 -1.9669376e-17
-26.938299 -99.1278 471.73499 0.155882 -0.827371 -0.53959 -1.9669376e-17
-25.976101 -100.396 477.18799 0.90842903 -0.032062199 -0.41680801 -1.9669376e-17
-24.299299 -100.33 477.478 0.313636 0.243939 -0.91767502 -1.9669376e-17
-22.6999 -100.337 478.328 -0.096987501 -0.334068 -0.93754601 -1.9669376e-17
-20.8067 -99.929398 476.94699 0.0101792 -0.92630798 -0.37663099 -1.9669376e-17
-19.1457 -99.916 477.358 0.15597101 -0.63588297 -0.75586098 -1.9669376e-17
-17.454201 -99.809799 477.49799 -0.080877602 -0.56614298 -0.82033002 -1.9669376e-17
-15.6612 -99.5485 476.77701 -0.28869799 0.53973901 -0.79078102 -1.9669376e-17
-13.94 -99.342598 476.586 0.480115 0.42820999 -0.76558799 -1.9669376e-17
-12.4728 -99.683098 478.75201 0.183817 -0.79654199 -0.57596099 -1.9669376e-17
-10.7309 -99.6623 478.07401 -0.30282399 -0.073095299 -0.950239 -1.9669376e-17
-8.9345198 -99.2117 477.547 -0.191044 -0.110604 -0.97533 -1.9669376e-17
-7.2104902 -98.999001 477.26999 0.123705 0.910918 -0.39360601 -1.9669376e-17
-5.62991 -99.219498 478.59201 -0.46297801 0.70108002 -0.54234499 -1.9669376e-17
-3.63239 -98.5 474.82001 -0.58520198 -0.131372 -0.80017501 -1.9669376e-17
-1.99599 -98.277802 475.75299 -0.14091501 0.98640501 0.084549002 -1.9669376e-17
-0.252967 -98.061401 475.121 0.246941 0.161048 -0.95555401 -1.9669376e-17
1.32275 -98.3405 476.61401 0.45138299 0.0104973 -0.89226902 -1.9669376e-17
2.99475 -98.193604 476.76001 0.46296999 -0.287792 -0.83835202 -1.9669376e-17
4.56668 -98.4291 478.41199 0.439257 -0.123893 -0.889777 -1.9669376e-17
6.2570601 -98.241096 478.35599 -0.37893799 -0.097441196 -0.92027801 -1.9669376e-17
8.0397701 -97.831299 476.91901 -0.485569 0.26146001 -0.83418298 -1.9669376e-17
9.7492104 -97.651802 476.53299 0.53603601 -0.236853 -0.810287 -1.9669376e-17
11.2898 -98.1567 479.203 0.65388203 0.106999 -0.74899203 -1.9669376e-17
12.9728 -98.049797 479.328 -0.32802901 -0.074070998 -0.94175899 -1.9669376e-17
14.7231 -97.566101 477.91901 -0.391168 -0.031716298 -0.91977298 -1.9669376e-17
16.413401 -97.479103 477.875 0.360167 0.0982273 -0.92770201 -1.9669376e-17
18.035999 -97.585197 479.21201 0.37186801 -0.16903099 -0.91276699 -1.9669376e-17
19.728001 -97.513901 479.21201 -0.38080499 -0.30710101 -0.87216699 -1.9669376e-17
21.4732 -97.069702 477.50601 -0.31848899 0.164736 -0.93350202 -1.9669376e-17
23.1336 -97.094002 478.155 -0.0094343796 0.23586001 -0.97174102 -1.9669376e-17
24.8256 -96.806503 477.52301 -0.32802901 0.074070998 -0.94175899 -1.9669376e-17
26.513901 -96.6045 477.061 0.116206 -0.044694599 -0.99221897 -1.9669376e-17
28.1653 -96.597099 477.90601 0.32506499 -0.34914401 -0.87888002 -1.9669376e-17
29.842899 -96.610703 478.284 -0.0300075 -0.310078 -0.95023799 -1.9669376e-17
31.533501 -96.458397 477.78601 -0.041274399 0.0247647 -0.99884099 -1.9669376e-17
33.204899 -96.414101 478.17499 0.108476 0.18736701 -0.976282 -1.9669376e-17
34.883499 -96.329597 478.207 -0.095706798 -0.30838901 -0.94643402 -1.9669376e-17
36.5569 -96.098602 477.72198 -0.334068 0.096987501 -0.93754601 -1.9669376e-17
38.2271 -95.845802 477.04901 0.097441196 -0.92027801 -0.37893799 -1.9669376e-17
39.9044 -95.943199 478.13599 0.103764 0.56493801 -0.81858301 -1.9669376e-17
41.5723 -95.720703 477.564 -0.115115 -0.282556 -0.95231801 -1.9669376e-17
43.252499 -95.694397 477.69601 -0.99967003 0.0243822 -0.0081273997 -1.9669376e-17
43.041 -79.128799 410.048 0.064806499 0.120355 -0.99061298 -1.9669376e-17
46.601299 -95.530998 477.961 0.63809103 0.75848597 0.132434 -1.9669376e-17
48.230202 -95.088799 476.621 -0.098422401 0.062632501 -0.99317199 -1.9669376e-17
49.922699 -95.152496 477.63501 0.071077898 -0.96462899 -0.25385001 -1.9669376e-17
51.571701 -94.9207 477.01001 -0.47733599 -0.055504199 -0.876966 -1.9669376e-17
53.2005 -94.625198 475.771 -0.055975199 -0.86201799 -0.50377703 -1.9669376e-17
54.879398 -94.6129 476.06699 -0.99363399 -0.112324 -0.0086402996 -1.9669376e-17
52.325001 -76.181099 395.68301 -0.54558498 0.81231499 0.20611 -1.9669376e-17
48.5294 -56.321499 309.849 -0.27589399 0.938039 0.20967899 -1.9669376e-17
53.7869 -71.360397 375.78 0.996315 0.060645301 -0.060645301 -1.9669376e-17
61.513901 -94.083199 475.93301 -0.96152598 0.25847501 0.093050897 -1.9669376e-17
51.599098 -56.0849 310.06 0.048909299 -0.96840298 -0.244546 -1.9669376e-17
64.794403 -93.747498 475.19699 0.90888703 -0.37966201 -0.172573 -1.9669376e-17
66.462502 -93.726402 475.146 0.174059 0.15358201 -0.97268498 -1.9669376e-17
68.168999 -93.753502 475.82101 -0.35368499 0.35368499 -0.86591798 -1.9669376e-17
69.683403 -93.201202 473.991 -0.382658 -0.35797 -0.851722 -1.9669376e-17
71.354599 -93.154099 474.16199 -0.18984 -0.32384601 -0.92686802 -1.9669376e-17
72.927498 -92.833 473.19501 -0.37806401 0.19475999 -0.90506202 -1.9669376e-17
74.548897 -92.632301 472.90399 -0.105344 0.66718 -0.73741001 -1.9669376e-17
76.2146 -92.598396 472.987 -0.63030201 0.18538301 -0.75389099 -1.9669376e-17
77.642403 -92.051399 470.51801 -0.72513002 0.29259601 -0.623357 -1.9669376e-17
79.222603 -91.806396 469.905 -0.101522 0.485048 -0.86857498 -1.9669376e-17
80.907204 -91.816803 470.302 0.222014 -0.158582 -0.96206099 -1.9669376e-17
82.582901 -91.739197 470.698 0.48603901 -0.079122603 -0.87034798 -1.9669376e-17
84.398201 -91.964699 472.26801 0.049597401 -0.96218997 -0.26782599 -1.9669376e-17
85.851997 -91.516701 470.513 0.97590202 0.069003202 -0.20701 -1.9669376e-17
89.342499 -91.6716 472.19199 -0.995121 -0.095185503 -0.0259597 -1.9669376e-17
91.012299 -91.6418 472.29401 0.224847 -0.20343301 -0.95292097 -1.9669376e-17
92.7388 -91.619598 472.94901 0.15358201 0.174059 -0.97268498 -1.9669376e-17
94.381798 -91.492599 472.88199 -0.34046 0.051584799 -0.93884301 -1.9669376e-17
95.901497 -91.220901 471.84698 -0.38716701 -0.38716701 -0.83678102 -1.9669376e-17
97.467102 -90.9925 471.24399 -0.99494803 -0.026414599 0.096853398 -1.9669376e-17
100.494 -90.418404 469.39499 0.98229003 0.047683999 -0.181199 -1.9669376e-17
102.068 -90.257698 468.905 -0.28869799 0.53973901 -0.79078102 -1.9669376e-17
103.639 -90.097 468.414 -0.0099429898 -0.32811901 -0.94458401 -1.9669376e-17
105.336 -90.031601 468.82599 -0.15651301 0.71032798 -0.68624902 -1.9669376e-17
106.845 -89.765099 468.00299 -0.066684797 0.18100201 -0.98121899 -1.9669376e-17
108.594 -89.827904 468.64499 0.26745999 -0.29071701 -0.91866702 -1.9669376e-17
110.291 -89.775803 468.99899 -0.77164602 0.0575855 -0.63344002 -1.9669376e-17
111.316 -88.920403 465.44699 -0.790497 0.0801953 -0.60719299 -1.9669376e-17
112.982 -88.902496 465.60599 0.091235504 0.25343201 -0.96304101 -1.9669376e-17
114.649 -88.884499 465.76401 0.0259597 -0.095185503 -0.995121 -1.9669376e-17
116.267 -88.797302 465.66101 -0.138539 -0.064651497 -0.988244 -1.9669376e-17
117.83 -88.619499 465.29501 -0.64693397 -0.056748599 -0.76043099 -1.9669376e-17
119.076 -88.120903 463.26501 -0.475023 -0.34663799 -0.80882299 -1.9669376e-17
120.701 -87.969498 463.319 0.12834901 -0.16784 -0.97742301 -1.9669376e-17
122.389 -87.9366 463.638 -0.614025 -0.378867 -0.69241101 -1.9669376e-17
