ply
format ascii 1.0
comment PCL generated
obj_info is_cyberware_data 0
obj_info is_mesh 0
obj_info is_warped 0
obj_info is_interlaced 0
obj_info num_cols 55141
obj_info num_rows 1
obj_info echo_rgb_offset_x 0
obj_info echo_rgb_offset_y 0
obj_info echo_rgb_offset_z 0
obj_info echo_rgb_frontfocus 0.0
obj_info echo_rgb_backfocus 0.0
obj_info echo_rgb_pixelsize 0.0
obj_info echo_rgb_centerpixel 0
obj_info echo_frames 1
obj_info echo_lgincr 0.0
element vertex 735
property float x
property float y
property float z
property float nx
property float ny
property float nz
property float curvature
end_header
-29.1868 -54.7521 369.204 0.13742 -0.206014 0.968852 0.00597233
-29.6926 -54.013 369.521 0.136215 -0.204931 0.969252 0.00612719
-30.1821 -53.2895 369.742 0.13535 -0.203664 0.96964 0.00612719
-30.6722 -52.5952 370.009 0.135467 -0.19947 0.970495 0.00632273
-31.1729 -51.8987 370.22 0.134739 -0.196146 0.971273 0.00632273
-31.6506 -51.219 370.459 0.13305 -0.193609 0.972015 0.00631361
-28.513 -51.8497 369.783 0.139158 -0.200793 0.9697 0.00422917
-29.0508 -50.9343 370.19 0.137975 -0.187232 0.972578 0.00983469
-29.5558 -50.2977 370.382 0.137041 -0.181462 0.973803 0.00983469
-30.0715 -49.6645 370.608 0.130674 -0.175149 0.975831 0.00913425
-30.546 -49.0552 370.793 0.129868 -0.167145 0.977342 0.0115011
-31.0255 -48.4851 370.946 0.131438 -0.166152 0.977301 0.0121798
-31.503 -47.9106 371.106 0.130171 -0.159369 0.978599 0.0121798
-28.6895 -45.231 371.54 0.0481721 -0.0688133 0.996466 0.0791227
-28.9732 -45.2906 371.549 0.0434243 -0.0670003 0.996808 0.0791227
-28.672 -46.699 370.706 0.116877 -0.0822914 0.989731 0.0488206
-28.9977 -47.0698 370.929 0.13031 -0.146804 0.980545 0.0126852
-29.5153 -46.5178 371.009 0.131857 -0.152768 0.979426 0.0147007
-29.9973 -45.958 371.16 0.131103 -0.147162 0.980385 0.0147007
-30.4809 -45.3996 371.272 0.128593 -0.145688 0.980938 0.0166289
-30.9589 -44.8738 371.305 0.12873 -0.143512 0.981241 0.0191075
-31.4258 -44.3556 371.441 0.127925 -0.139369 0.981943 0.0191075
-28.6771 -41.4784 371.704 0.0136614 -0.0182991 0.999739 0.0791227
-28.9613 -41.5381 371.706 0.00890407 -0.0164786 0.999825 0.0791227
-28.78 -41.7539 371.827 0.132979 -0.0294302 0.990682 0.0929262
-29.0914 -42.6642 371.097 0.119231 -0.0845327 0.989261 0.0488206
-29.5493 -42.3533 371.178 0.119431 -0.0849554 0.989201 0.0488206
-29.9522 -42.182 371.492 0.130145 -0.121032 0.98408 0.0249077
-30.4417 -41.7054 371.566 0.12454 -0.126725 0.984089 0.0234459
-30.867 -41.2233 371.737 0.115084 -0.124884 0.985474 0.0223172
-31.2999 -40.7338 371.74 0.112662 -0.12792 0.985365 0.0245186
-29.5028 -29.9659 372.305 -0.0817672 0.398952 0.913319 0.175037
-29.6091 -31.0114 372.689 -0.0774031 0.300965 0.950489 0.175037
-29.7189 -32.0916 372.961 -0.0721749 0.19944 0.977248 0.175037
-28.7694 -38.0034 371.925 0.143369 -0.0233557 0.989394 0.0929262
-29.1669 -38.0217 371.981 0.137292 -0.0245098 0.990227 0.0929262
-29.5095 -38.6303 371.497 0.121583 -0.0867732 0.988781 0.0488206
-29.9672 -38.3195 371.58 0.121783 -0.0871957 0.988719 0.0488206
-30.4353 -37.9791 371.633 0.131033 -0.11201 0.98503 0.036055
-30.9275 -37.4884 371.57 0.124649 -0.117755 0.985188 0.0395925
-31.3653 -37.1085 372.016 0.125721 -0.112435 0.985674 0.0293645
-32.0583 -35.3736 371.935 0.126413 -0.106334 0.986262 0.0365172
-29.567 -26.8479 370.27 -0.102762 0.661355 0.743001 0.175037
-29.6619 -27.7808 371.016 -0.101975 0.591287 0.799988 0.175037
-29.7603 -28.7486 371.65 -0.100217 0.511144 0.853633 0.175037
-29.8622 -29.7511 372.173 -0.0973666 0.421882 0.901408 0.175037
-29.1582 -34.2713 372.061 0.147671 -0.0184344 0.988865 0.0929262
-29.4689 -34.9078 371.822 0.123734 -0.0885902 0.988353 0.0488206
-29.9365 -34.679 371.679 0.126845 -0.128968 0.983503 0.0476308
-30.4685 -34.1723 371.439 0.133761 -0.136473 0.981572 0.0481913
-30.9737 -33.626 371.588 0.137546 -0.147561 0.979442 0.0481913
-31.4635 -32.5519 372.226 0.129799 -0.150962 0.979981 0.0365172
-31.9856 -31.7371 372.429 0.135518 -0.165912 0.976785 0.0365172
-32.5054 -30.9259 372.647 0.141212 -0.180845 0.973321 0.0365172
-33.4926 -29.1 374.013 0.0973215 -0.243 0.965132 0.0363181
-29.6685 -24.0958 367.057 -0.112183 0.821684 0.558793 0.175037
-29.7519 -24.9162 368.166 -0.113958 0.78175 0.613091 0.175037
-29.8389 -25.7714 369.162 -0.115316 0.733578 0.66975 0.175037
-29.9294 -26.6614 370.047 -0.116071 0.676133 0.72758 0.175037
-29.1521 -30.521 372.119 0.158021 -0.0123599 0.987358 0.0929262
-29.5151 -31.5142 371.68 0.120435 -0.163241 0.979208 0.0705967
-29.9033 -31.0541 371.851 0.131445 -0.188731 0.973192 0.0532606
-30.3906 -30.4898 371.969 0.12986 -0.197727 0.971617 0.0550797
-30.9055 -29.6947 372.389 0.135001 -0.199108 0.970634 0.0480143
-31.3671 -28.9522 372.881 0.138576 -0.210454 0.967732 0.0365172
-31.8813 -28.1498 373.137 0.144178 -0.225284 0.963566 0.0365172
-32.7015 -26.6558 374.557 0.101162 -0.250657 0.962776 0.0363181
-33.329 -25.62 374.901 0.111937 -0.25802 0.959633 0.0363181
-30.0015 -29.7011 343.138 -0.109293 0.918051 -0.381099 0.209178
-30.2699 -27.3311 349.408 -0.119913 0.937832 -0.325716 0.209178
-30.4588 -25.6637 354.931 -0.13358 0.959236 -0.249045 0.209178
-29.3442 -30.1424 371.226 0.000290674 -0.1785 0.98394 0.177147
-29.0656 -29.9891 371.807 0.0996128 -0.227973 0.968559 0.0954364
-29.3463 -28.5355 372.228 0.133873 -0.227423 0.96455 0.0729104
-29.7407 -27.9613 372.616 0.13709 -0.243004 0.960289 0.0650738
-30.2757 -26.9013 372.79 0.143341 -0.260266 0.954838 0.0549277
-30.788 -26.0832 373.266 0.149099 -0.25986 0.954066 0.0478963
-31.2393 -25.4017 373.749 0.146843 -0.26924 0.951813 0.0365172
-31.7456 -24.6115 374.059 0.152289 -0.283777 0.94672 0.0365172
-32.533 -23.1839 375.472 0.115772 -0.26565 0.957093 0.0363181
-33.1559 -22.1558 375.841 0.126542 -0.272961 0.953666 0.0363181
-30.6835 -12.983 343.715 -0.0753122 -0.599564 -0.796775 0.196387
-30.4474 -19.6713 349.109 -0.0778292 -0.659635 -0.747546 0.196387
-30.2652 -24.834 354.128 -0.0806003 -0.738259 -0.669684 0.196387
-30.1368 -28.4712 358.773 -0.08289 -0.838341 -0.538807 0.196387
-28.9543 -26.5183 372.744 0.115582 -0.296168 0.948117 0.0954364
-29.3553 -25.5125 373.121 0.119415 -0.318079 0.940514 0.0954364
-29.5963 -24.4911 373.581 0.146228 -0.298333 0.943194 0.0650738
-30.0625 -23.5544 374.102 0.154466 -0.286583 0.945521 0.0469481
-30.5442 -22.6527 374.789 0.145582 -0.289492 0.946045 0.0390611
-31.0984 -21.6583 375.161 0.163041 -0.297393 0.940731 0.0375176
-31.6364 -21.0119 376.192 0.135686 -0.257438 0.956721 0.0319854
-32.2317 -20.0739 376.531 0.139502 -0.258237 0.955956 0.0319854
-32.8263 -19.1368 376.872 0.143317 -0.259033 0.955177 0.0319854
-30.4872 -14.7927 345.081 -0.0745505 -0.61303 -0.786534 0.196387
-30.2645 -21.1029 350.383 -0.076904 -0.677259 -0.731715 0.196387
-30.0956 -25.8874 355.309 -0.0793268 -0.761202 -0.643645 0.196387
-29.9806 -29.1464 359.861 -0.0807521 -0.865883 -0.493686 0.196387
-28.8141 -23.1198 373.922 0.130907 -0.362661 0.922681 0.0954364
-28.9091 -23.4845 374.662 0.192823 -0.353623 0.915298 0.0841435
-29.2647 -21.7783 375.339 0.162195 -0.337482 0.927253 0.0577188
-29.7342 -20.5403 375.933 0.162641 -0.340036 0.926242 0.0469663
-30.3238 -19.3314 376.218 0.150528 -0.286104 0.946301 0.0292218
-30.8667 -18.3626 376.692 0.157814 -0.287169 0.94479 0.0291613
-31.3552 -17.5097 377.218 0.153885 -0.265438 0.951768 0.0280662
-32.0712 -16.5768 377.451 0.145059 -0.257557 0.955312 0.0319854
-32.6654 -15.6405 377.795 0.148872 -0.258348 0.954512 0.0319854
-30.3962 -23.4171 373.78 -0.199201 -0.383241 0.901912 0.161605
-28.2767 -21.5895 375.245 0.204475 -0.342484 0.917003 0.0841435
-28.5394 -19.2855 376.12 0.145296 -0.346421 0.926758 0.0419878
-29.063 -18.1988 376.597 0.148107 -0.329192 0.932575 0.0419878
-29.5896 -17.1058 377.056 0.150868 -0.31184 0.93808 0.0419878
-30.1137 -15.9115 377.439 0.164764 -0.267035 0.949497 0.0280328
-30.6786 -14.9904 377.792 0.158019 -0.252958 0.954485 0.0274495
-31.2352 -14.3183 378.096 0.162979 -0.230393 0.959352 0.0207967
-31.7978 -13.5398 378.376 0.161835 -0.225996 0.960591 0.0207967
-32.427 -12.522 378.655 0.13807 -0.190555 0.971919 0.0327103
-27.8299 -17.0081 376.804 0.152144 -0.307066 0.939448 0.0419878
-28.3603 -15.9072 377.239 0.15484 -0.289582 0.944546 0.0419878
-28.8369 -14.4824 377.886 0.169577 -0.272297 0.947152 0.0337874
-29.3852 -13.5046 378.255 0.16627 -0.255342 0.952447 0.0337874
-29.9526 -12.3377 378.334 0.168519 -0.226542 0.959312 0.0202146
-30.5541 -11.5286 378.6 0.163962 -0.215261 0.962694 0.0202417
-31.1061 -10.747 378.892 0.16366 -0.210272 0.963847 0.0207967
-31.6713 -9.96488 379.156 0.1625 -0.205855 0.964996 0.0207967
-32.5359 -9.60816 379.263 0.184069 -0.187326 0.964898 0.0178671
-27.673 -13.5835 377.784 0.16129 -0.249541 0.954838 0.0419878
-28.1414 -11.9725 378.425 0.171547 -0.231111 0.957685 0.0337874
-28.6964 -10.9829 378.753 0.168118 -0.214019 0.962254 0.0337874
-29.2545 -9.98774 379.061 0.164642 -0.196893 0.966502 0.0337874
-29.8407 -8.67176 379.068 0.166235 -0.198754 0.965848 0.0182696
-30.4459 -7.94144 379.276 0.170232 -0.190053 0.966903 0.0159135
-31.0515 -7.24022 379.49 0.166035 -0.191521 0.967343 0.0179191
-31.7635 -6.63339 379.686 0.180103 -0.181992 0.966665 0.0178671
-32.4126 -5.98188 379.929 0.180143 -0.179879 0.967053 0.0178671
-33.062 -5.33011 380.17 0.180183 -0.177766 0.967436 0.0178671
-34.4638 -5.35328 380.227 0.136629 -0.116028 0.983804 0.0444121
-28.4263 -3.82429 380.886 0.227763 -0.152706 0.961668 0.083693
-28.7817 -3.91791 380.954 0.222556 -0.154999 0.96252 0.083693
-29.1374 -4.01158 381.02 0.217338 -0.157288 0.96334 0.083693
-29.0988 -5.63749 379.498 0.169348 -0.180865 0.968818 0.0175124
-29.7123 -4.98195 379.726 0.168635 -0.176535 0.969741 0.0175124
-30.3186 -4.33343 379.997 0.16686 -0.16435 0.972187 0.0210237
-30.9935 -3.65619 380.096 0.176128 -0.176648 0.968387 0.0178671
-31.6438 -3.00351 380.332 0.176167 -0.174534 0.968764 0.0178671
-32.2943 -2.35058 380.568 0.176204 -0.172418 0.969136 0.0178671
-33.5644 -2.19501 380.492 0.129531 -0.125091 0.983653 0.0444121
-34.3643 -1.66873 380.671 0.142746 -0.128391 0.981397 0.0444121
-28.3997 -0.067302 381.161 0.212296 0.00918287 0.977162 0.083693
-28.7543 -0.160699 381.238 0.207045 0.00689874 0.978307 0.083693
-29.1092 -0.254151 381.312 0.201781 0.00461179 0.97942 0.083693
-29.1012 -0.535753 381.074 0.156309 -0.0492925 0.986477 0.0596927
-29.6337 -1.11374 380.487 0.160414 -0.106339 0.981305 0.0274953
-30.2035 -0.655925 380.71 0.161337 -0.0889847 0.982879 0.0339282
-30.8064 -0.269426 380.813 0.163806 -0.0837256 0.982933 0.0295628
-31.5291 0.631387 380.952 0.172218 -0.167063 0.970789 0.0178671
-32.6575 0.958247 380.792 0.122423 -0.134129 0.983373 0.0444121
-33.4575 1.48466 380.97 0.135631 -0.137446 0.981179 0.0444121
-34.2548 2.00925 381.16 0.148843 -0.140745 0.978793 0.0444121
-30.7472 20.062 342.136 0.00209738 -0.978258 -0.207381 0.0122011
-30.7347 19.0844 345.583 -0.00192818 -0.98055 -0.19626 0.00167184
-30.7165 18.3737 349.193 -0.00261704 -0.981764 -0.190085 0.00167184
-30.6989 17.6856 352.807 -0.00330573 -0.982939 -0.183903 0.00167184
-30.6491 17.0664 356.511 0.0255295 -0.979194 -0.201316 0.00799255
-30.8471 15.5755 364.8 0.0384409 -0.964403 -0.261629 0.0244718
-29.5959 15.0842 374.353 -0.012442 -0.872465 -0.488518 0.110565
-29.7027 13.3441 376.728 -0.0533832 -0.725399 -0.686256 0.110565
-29.1157 3.21378 380.972 0.137568 0.103929 0.985025 0.0596927
-29.638 3.19709 381.046 0.137192 0.105801 0.984878 0.0596927
-30.1452 3.14299 381.127 0.148953 0.0567674 0.987213 0.0506343
-30.7337 3.26516 381.19 0.157345 0.0426445 0.986622 0.0493583
-31.3277 3.39682 381.279 0.158272 0.0488517 0.986186 0.0493583
-32.5432 4.63304 381.302 0.128507 -0.146474 0.980832 0.0444121
-33.3407 5.15776 381.491 0.141712 -0.149789 0.978509 0.0444121
-34.1354 5.68066 381.693 0.154917 -0.153083 0.975995 0.0444121
-30.5336 20.9725 337.663 0.0156829 -0.981169 -0.192516 0.00848657
-30.6578 20.2175 341.404 0.00287589 -0.978231 -0.207499 0.0122011
-30.6389 19.4548 344.999 -0.00312473 -0.978201 -0.207637 0.0122011
-30.5707 18.7066 348.523 0.0190685 -0.980794 -0.194112 0.00747304
-30.5559 17.9884 352.131 0.0216057 -0.980289 -0.196386 0.00747304
-30.5658 17.2183 355.782 0.0238734 -0.979337 -0.200821 0.00799255
-30.553 16.4799 359.39 0.0281081 -0.978963 -0.202091 0.0088141
-30.7013 15.8488 363.789 0.0389596 -0.96754 -0.249697 0.0244718
-29.7668 16.0519 372.155 0.0192341 -0.947692 -0.318606 0.110565
-29.8455 14.7696 374.892 -0.0203769 -0.847867 -0.529818 0.110565
-29.466 9.66329 379.907 0.0511802 0.64938 0.75874 0.109328
-29.8022 8.59446 380.745 0.0682468 0.554789 0.829188 0.109328
-30.2092 6.93578 380.711 0.132377 0.246581 0.960039 0.0569561
-30.7095 6.65892 381.183 0.126616 0.330498 0.935275 0.0772621
-31.5459 6.62759 381.413 0.152711 0.191352 0.969569 0.071889
-32.2725 6.45024 381.566 0.164416 0.183201 0.969229 0.071889
-32.9977 6.27323 381.726 0.176124 0.174988 0.96869 0.071889
-33.7214 6.09657 381.894 0.187826 0.166718 0.96795 0.071889
-30.9352 25.2412 295.934 0.0654084 -0.992688 0.101455 0.00613309
-30.9477 25.539 299.73 0.0590671 -0.996749 0.0547992 0.00613309
-30.9525 25.656 303.498 0.0524612 -0.998598 0.00707098 0.00613309
-30.9499 25.5921 307.238 0.0456266 -0.998099 -0.0414243 0.00613309
-30.9397 25.3473 310.95 0.0386059 -0.995162 -0.0903499 0.00613309
-30.9428 24.922 314.569 0.0418574 -0.990114 -0.133871 0.00665677
-30.803 23.8443 322.076 0.0298221 -0.986768 -0.159372 0.00624687
-30.7943 23.302 326.007 0.0251044 -0.984858 -0.171537 0.00471966
-30.7699 22.6443 329.636 0.023577 -0.9824 -0.185294 0.00471966
-30.5336 21.8801 333.27 0.0189938 -0.9826 -0.184761 0.00784994
-30.4805 21.1101 336.965 0.0160292 -0.981351 -0.191554 0.00848657
-30.428 20.3424 340.623 0.0082541 -0.980327 -0.197205 0.00988622
-30.5495 19.61 344.266 -0.00234641 -0.978178 -0.207756 0.0122011
-30.4117 18.7494 347.955 0.0143166 -0.978803 -0.204302 0.0104397
-30.4814 18.1325 351.419 0.0209073 -0.980404 -0.195884 0.00747304
-30.4979 17.4164 355.042 0.0203515 -0.980589 -0.195018 0.0081121
-30.468 16.6333 358.658 0.0258569 -0.979082 -0.201817 0.0088141
-30.5551 16.1098 362.775 0.0394719 -0.970528 -0.237735 0.0244718
-30.5161 15.1793 366.255 0.0358813 -0.95954 -0.279277 0.0244718
-30.0108 15.8276 372.766 0.0119938 -0.9329 -0.359937 0.110565
-30.0965 14.4329 375.414 -0.0283512 -0.820947 -0.5703 0.110565
-30.1398 12.4411 378.666 0.0267592 0.773809 0.632854 0.107067
-30.4192 10.5042 379.173 0.0511406 0.677994 0.733286 0.0852182
-30.6744 9.70664 380.506 0.0586996 0.631029 0.773536 0.0891997
-31.7836 10.3196 380.236 0.124911 0.414929 0.901239 0.071889
-32.5039 10.1438 380.421 0.136112 0.408424 0.902587 0.071889
-33.2227 9.96829 380.612 0.147365 0.401806 0.90379 0.071889
-30.7766 25.19 295.35 0.0665951 -0.991893 0.108227 0.00613309
-30.7901 25.5146 299.15 0.0602987 -0.996268 0.0617534 0.00613309
-30.7961 25.6582 302.922 0.0537325 -0.998455 0.0141653 0.00613309
-30.7946 25.621 306.666 0.0469312 -0.998311 -0.0342373 0.00613309
-30.7855 25.4028 310.382 0.0399364 -0.995739 -0.0831217 0.00613309
-30.7842 25.0013 314.022 0.0409976 -0.9908 -0.128972 0.00665677
-30.8113 24.4036 317.618 0.0329455 -0.989137 -0.143254 0.00902773
-30.6711 23.9432 321.485 0.0298582 -0.987006 -0.157883 0.00624687
-30.6107 23.3395 325.203 0.029591 -0.985537 -0.166857 0.00555556
-30.6359 22.7717 328.973 0.0230365 -0.982874 -0.182834 0.00471966
-30.4669 22.0069 332.599 0.0196868 -0.982894 -0.183119 0.00784994
-30.4274 21.247 336.266 0.0163756 -0.981533 -0.190592 0.00848657
-30.3905 20.4872 339.904 0.00894837 -0.980337 -0.197126 0.00988622
-30.3676 19.7265 343.519 0.00743273 -0.980087 -0.198428 0.00985462
-30.3742 18.9136 347.174 0.0131889 -0.978527 -0.205697 0.0104397
-30.4068 18.2763 350.707 0.0202088 -0.980519 -0.195383 0.00747304
-30.4066 17.5613 354.322 0.0186084 -0.980633 -0.19497 0.0081121
-30.3883 16.8327 357.929 0.0280095 -0.980022 -0.196908 0.00828462
-30.3716 16.062 361.529 0.030336 -0.9799 -0.19717 0.00951996
-30.3711 15.4706 365.25 0.036409 -0.962898 -0.267399 0.0244718
-30.3377 14.6714 368.792 0.0366685 -0.938675 -0.342848 0.0394169
-30.3269 14.8864 372.738 0.00737889 -0.903882 -0.427719 0.0869237
-30.3603 14.1135 375.76 -0.0253658 0.928202 0.37121 0.107067
-30.4799 12.9873 377.935 0.00924884 0.833515 0.55242 0.107067
-31.0207 12.4908 377.325 0.00468007 0.838157 0.545409 0.0891997
-32.2098 13.9655 378.127 0.0960468 0.585889 0.804679 0.071889
-32.9237 13.7913 378.343 0.106186 0.581358 0.806689 0.071889
-33.6362 13.6174 378.566 0.116403 0.576712 0.808612 0.071889
-30.6178 25.135 294.765 0.0677743 -0.991054 0.114969 0.00613309
-30.6324 25.4862 298.569 0.0615236 -0.99574 0.0686831 0.00613309
-30.6395 25.6565 302.345 0.0549979 -0.99826 0.0212417 0.00613309
-30.6391 25.6459 306.094 0.048231 -0.99847 -0.0270609 0.00613309
-30.6311 25.4545 309.814 0.0412634 -0.996262 -0.0758961 0.00613309
-30.5711 25.0069 313.495 0.0396789 -0.988355 -0.146903 0.00574267
-30.5439 24.5486 317.184 0.0327717 -0.988171 -0.149814 0.00666036
-30.5392 24.0413 320.895 0.0298944 -0.987242 -0.156393 0.00624687
-30.4948 23.4466 324.587 0.0300367 -0.985864 -0.164831 0.00555556
-30.4773 22.8785 328.311 0.024143 -0.983857 -0.177323 0.00450244
-30.4001 22.1327 331.928 0.0203798 -0.983184 -0.181477 0.00784994
-30.3744 21.3833 335.566 0.0167219 -0.981713 -0.18963 0.00848657
-30.3702 20.7113 339.189 0.0130346 -0.980563 -0.195771 0.00847516
-30.3402 19.8744 342.79 0.00762782 -0.980064 -0.198536 0.00985462
-30.3367 19.0789 346.393 0.0120611 -0.978247 -0.207091 0.0104397
-30.3323 18.4196 349.994 0.0195103 -0.980633 -0.194881 0.00747304
-30.3188 17.7014 353.601 0.0160679 -0.98044 -0.196163 0.00792486
-30.297 16.9805 357.206 0.0260553 -0.980168 -0.196446 0.00828462
-30.2741 16.2124 360.796 0.0279899 -0.979938 -0.197325 0.00951996
-30.2256 15.7496 364.241 0.036931 -0.966108 -0.255483 0.0244718
-30.1978 15.1235 367.505 0.0385765 -0.949269 -0.312091 0.0394169
-30.3291 15.639 370.842 0.0273687 -0.950283 -0.310181 0.0869237
-30.3617 14.7463 373.868 -0.00525427 -0.880438 -0.474133 0.0924618
-30.7215 14.4611 374.75 -0.0382298 0.952795 0.301197 0.107067
-31.5293 14.8222 372.652 -0.0313806 0.930506 0.36493 0.0891997
-31.7673 14.1582 374.215 -0.0224365 0.911377 0.410961 0.0891997
-33.5319 17.3928 375.332 0.0792826 0.702631 0.707124 0.071889
-30.4588 25.0761 294.18 0.0689458 -0.990172 0.12168 0.00613309
-30.4745 25.4539 297.988 0.0627415 -0.995163 0.0755876 0.00613309
-30.4828 25.6509 301.768 0.0562574 -0.998015 0.0282993 0.00613309
-30.4834 25.667 305.521 0.049526 -0.998575 -0.019896 0.00613309
-30.4671 25.5512 309.28 0.0397713 -0.994403 -0.0978867 0.00419493
-30.4404 25.0957 312.933 0.0404445 -0.988399 -0.146394 0.00574267
-30.4065 24.5252 316.568 0.0326793 -0.987783 -0.152372 0.00746776
-30.3969 24.0792 320.285 0.0299573 -0.987589 -0.154178 0.00624737
-30.379 23.5525 323.971 0.0304823 -0.986187 -0.162806 0.00555556
-30.3616 23.0007 327.644 0.0237463 -0.984344 -0.174654 0.00450244
-30.3391 22.3246 331.27 0.02586 -0.981649 -0.188938 0.00469568
-30.3192 21.5944 334.886 0.0177934 -0.982429 -0.185785 0.00698311
-30.3091 20.852 338.487 0.0133036 -0.980767 -0.194728 0.00847516
-30.3128 20.0224 342.061 0.00782292 -0.980041 -0.198643 0.00985462
-30.2992 19.2452 345.612 0.0109333 -0.977964 -0.208485 0.0104397
-30.2578 18.5624 349.281 0.0188118 -0.980746 -0.194379 0.00747304
-30.254 17.8464 352.881 0.014947 -0.980554 -0.19568 0.00792486
-30.2156 17.0742 356.495 0.0251693 -0.980566 -0.194568 0.00714923
-30.1765 16.3628 360.063 0.0256436 -0.979971 -0.19748 0.00951996
-30.1276 15.6348 363.482 0.0279001 -0.976183 -0.215149 0.0133416
-30.0562 15.5346 366.201 0.0404371 -0.958822 -0.281113 0.0394169
-30.3315 16.1694 368.806 0.0457375 -0.979706 -0.195153 0.0869237
-30.3908 15.6126 371.91 0.0194198 -0.942091 -0.334794 0.0924618
-30.2996 25.0132 293.594 0.0701095 -0.989246 0.12836 0.00613309
-30.3165 25.4178 297.406 0.0639523 -0.99454 0.0824658 0.00613309
-30.3259 25.6414 301.191 0.0575107 -0.997719 0.035337 0.00613309
-30.3359 25.8988 304.982 0.042381 -0.997252 -0.0607633 0.00419493
-30.3249 25.6138 308.686 0.0402338 -0.994871 -0.0928082 0.00419493
-30.3082 25.1596 312.367 0.0409097 -0.989187 -0.140835 0.00487652
-30.2948 24.6102 316.043 0.0335875 -0.987607 -0.15331 0.00746776
-30.2786 24.1724 319.709 0.030597 -0.987708 -0.153288 0.00624737
-30.2631 23.6572 323.355 0.0309278 -0.986506 -0.160779 0.00555556
-30.2548 23.0565 326.961 0.0283324 -0.984578 -0.172639 0.00456826
-30.2318 22.4557 330.598 0.0255204 -0.982196 -0.186119 0.00469568
-30.2311 21.7197 334.229 0.0179339 -0.982677 -0.184457 0.00698311
-30.248 20.9919 337.784 0.0135726 -0.98097 -0.193685 0.00847516
-30.2854 20.1704 341.331 0.00801801 -0.980017 -0.198751 0.00985462
-30.2618 19.4126 344.831 0.00980546 -0.977678 -0.209878 0.0104397
-30.1904 18.6912 348.415 0.0143747 -0.97841 -0.206174 0.0129782
-30.1758 17.9438 352.001 0.0154029 -0.979274 -0.201951 0.0129782
-30.1763 17.2696 355.766 0.0185095 -0.980191 -0.19719 0.00792486
-30.0961 16.5534 359.363 0.0304548 -0.979976 -0.196775 0.00828462
-30.1583 25.3777 296.824 0.065156 -0.99387 0.089317 0.00613309
-30.1986 26.0879 300.658 0.0449132 -0.998707 -0.0238285 0.00419493
-30.1929 25.9398 304.385 0.0428332 -0.997528 -0.0557016 0.00419493
-30.1826 25.6735 308.092 0.0406949 -0.995313 -0.0877308 0.00419493
-30.1727 25.245 311.805 0.0418584 -0.989275 -0.139939 0.00487652
-30.1832 24.6957 315.518 0.0344956 -0.98743 -0.154247 0.00746776
-30.1603 24.2652 319.133 0.0312367 -0.987826 -0.152397 0.00624737
-30.1472 23.7606 322.738 0.0313731 -0.98682 -0.158752 0.00555556
-30.0537 23.2343 326.355 0.00419867 -0.985605 -0.169015 0.00735487
-30.0251 22.5875 329.991 0.00191206 -0.983428 -0.181288 0.00735487
-29.9945 21.8953 333.619 -0.000373963 -0.981095 -0.193527 0.00735487
-30.1868 21.1311 337.082 0.0138416 -0.981172 -0.192641 0.00847516
-30.2564 20.281 340.603 0.00893639 -0.980024 -0.198678 0.00895314
-30.1352 19.6243 344.047 0.0130188 -0.977335 -0.211298 0.0129782
-30.1202 18.8582 347.629 0.0140474 -0.978223 -0.207079 0.0129782
-30.1055 18.1074 351.215 0.0150757 -0.979092 -0.202857 0.0129782
-30.0911 17.3722 354.804 0.0161036 -0.979942 -0.198631 0.0129782
-30.0551 26.1184 296.31 0.0473594 -0.998796 0.0127686 0.00419493
-30.0547 26.1072 300.058 0.0453536 -0.998794 -0.0188043 0.00419493
-30.0497 25.9779 303.787 0.0432837 -0.997778 -0.0506438 0.00419493
-30.0402 25.7303 307.497 0.0411547 -0.995728 -0.0826548 0.00419493
-30.026 25.3645 311.188 0.0389722 -0.992631 -0.114739 0.00419493
-30.0524 24.795 314.932 0.0398021 -0.988092 -0.148627 0.00640661
-30.0342 24.2422 318.599 0.0305544 -0.988263 -0.149674 0.00640661
-29.9191 23.938 322.068 0.00563129 -0.987955 -0.154638 0.00735487
-29.8928 23.3442 325.713 0.00334541 -0.985961 -0.166942 0.00735487
-29.8646 22.705 329.351 0.00105904 -0.983809 -0.179219 0.00735487
-29.8343 22.0205 332.98 -0.00122674 -0.981499 -0.191463 0.00735487
-29.7381 21.2807 336.702 -0.00780031 -0.98196 -0.188928 0.00952381
-30.0805 20.5801 339.685 0.0116625 -0.976232 -0.216415 0.0129782
-30.0651 19.7952 343.263 0.0126914 -0.977143 -0.212202 0.0129782
-30.05 19.0258 346.844 0.0137201 -0.978036 -0.207984 0.0129782
-30.0352 18.2717 350.429 0.0147484 -0.978909 -0.203763 0.0129782
-30.0208 17.5332 354.017 0.0157764 -0.979763 -0.199537 0.0129782
-26.9681 -162.927 463.616 -0.0833666 -0.4333 0.897386 0.00785825
-26.7008 -162.173 464.001 -0.0834414 -0.425498 0.901104 0.00785825
-26.4277 -161.42 464.363 -0.0746511 -0.413493 0.907442 0.0078352
-26.1512 -160.672 464.723 -0.0756978 -0.40606 0.910706 0.0078352
-25.8741 -159.922 465.077 -0.076743 -0.398575 0.913919 0.0078352
-25.617 -159.069 465.369 -0.0883595 -0.396341 0.913842 0.00800481
-27.0914 -159.525 465.168 -0.0828554 -0.398402 0.913461 0.00785825
-26.8215 -158.764 465.52 -0.0829019 -0.390335 0.916933 0.00785825
-26.548 -157.996 465.837 -0.0766137 -0.378925 0.92225 0.0078352
-26.2689 -157.241 466.167 -0.0776473 -0.371263 0.925275 0.0078352
-25.9894 -156.484 466.49 -0.0786784 -0.363554 0.928245 0.0078352
-25.7093 -155.727 466.807 -0.0797066 -0.3558 0.931157 0.0078352
-27.7465 -157.623 465.915 -0.0821578 -0.378833 0.921811 0.00785825
-27.4752 -156.858 466.249 -0.0821878 -0.370632 0.925136 0.00785825
-27.2033 -156.091 466.577 -0.0822114 -0.362379 0.928398 0.00785825
-26.9308 -155.322 466.897 -0.0822286 -0.354074 0.931595 0.00785825
-26.6578 -154.552 467.21 -0.0822393 -0.34572 0.934727 0.00785825
-26.3753 -153.779 467.471 -0.0795085 -0.335487 0.938684 0.0078352
-26.0933 -153.015 467.764 -0.080522 -0.327581 0.941385 0.0078352
-25.8107 -152.251 468.051 -0.0815317 -0.319637 0.944026 0.0078352
-27.8436 -153.126 467.338 -0.0881351 -0.391922 0.915767 0.0122918
-27.5783 -153.399 467.548 -0.0814384 -0.333826 0.93911 0.00785825
-27.3039 -152.624 467.843 -0.0814324 -0.32536 0.942077 0.00785825
-27.0288 -151.849 468.13 -0.0814197 -0.316851 0.944974 0.00785825
-26.7532 -151.071 468.411 -0.0814005 -0.3083 0.9478 0.00785825
-26.4703 -150.286 468.635 -0.0812698 -0.298864 0.950829 0.0078352
-26.2091 -149.661 468.935 -0.0847803 -0.311343 0.946508 0.0078396
-25.9378 -148.988 469.176 -0.0840122 -0.301253 0.949836 0.0078396
-27.9511 -149.592 468.707 -0.088077 -0.331865 0.939206 0.0122918
-27.6741 -149.034 468.927 -0.0888233 -0.321993 0.942566 0.0122918
-27.3967 -148.475 469.141 -0.0895626 -0.31205 0.945835 0.0122918
-27.1155 -148.343 469.221 -0.0804752 -0.27882 0.956966 0.00785825
-26.8239 -147.454 469.471 -0.0822099 -0.271518 0.958916 0.00774557
-26.5582 -146.779 469.691 -0.0823841 -0.262234 0.961481 0.00781133
-26.2919 -146.155 469.896 -0.0803263 -0.252475 0.964263 0.00730716
-26.018 -145.521 470.167 -0.0829759 -0.251201 0.964372 0.00737785
-25.7318 -145.015 470.212 -0.0823369 -0.234023 0.968738 0.00721989
-28.0392 -146.02 469.83 -0.0876379 -0.268917 0.959168 0.0122918
-27.7591 -145.456 470.011 -0.088329 -0.258647 0.961925 0.0122918
-27.4786 -144.891 470.185 -0.0890116 -0.248324 0.964579 0.0122918
-27.1976 -144.325 470.354 -0.0896854 -0.237953 0.967127 0.0122918
-26.902 -143.825 470.443 -0.0772087 -0.222997 0.971757 0.00778116
-26.6254 -143.178 470.583 -0.0782527 -0.212858 0.973945 0.00759305
-26.3474 -142.583 470.709 -0.0802606 -0.20471 0.975527 0.00721989
-26.0699 -141.989 470.855 -0.0804813 -0.197255 0.977043 0.00721989
-25.7921 -141.394 470.995 -0.0806974 -0.189784 0.978504 0.00721989
-28.108 -142.408 470.707 -0.0868008 -0.203785 0.97516 0.0122918
-27.8248 -141.838 470.848 -0.0874318 -0.193241 0.977248 0.0122918
-27.5412 -141.267 470.983 -0.0880532 -0.182667 0.979224 0.0122918
-27.2572 -140.694 471.112 -0.0886647 -0.172064 0.981087 0.0122918
-26.9624 -140.018 471.219 -0.0771051 -0.171333 0.982191 0.0106864
-26.6806 -139.511 471.307 -0.0757896 -0.163097 0.983695 0.0105729
-26.4009 -139.008 471.39 -0.07618 -0.158888 0.984353 0.0102288
-26.1218 -138.505 471.491 -0.075817 -0.152612 0.985374 0.0102288
-25.8425 -138.003 471.589 -0.0754508 -0.146329 0.986354 0.0102288
-27.5845 -137.604 471.535 -0.0866904 -0.115931 0.989467 0.0122918
-27.344 -136.524 471.482 -0.0857556 -0.115888 0.989553 0.024727
-26.9705 -136.285 471.632 -0.0713964 -0.132612 0.988593 0.0148248
-26.7052 -135.806 471.714 -0.0708665 -0.128097 0.989227 0.0148248
-26.4298 -135.316 471.717 -0.0736509 -0.128886 0.988921 0.0150391
-26.1564 -134.837 471.799 -0.0734084 -0.125881 0.989326 0.0150391
-25.9608 -134.358 471.926 -0.06306 -0.127833 0.989789 0.0140559
-28.0039 -133.59 471.759 -0.0868924 -0.109658 0.990164 0.024727
-27.6916 -133.204 471.829 -0.0858843 -0.108735 0.990354 0.024727
-27.3793 -132.817 471.898 -0.0848761 -0.107812 0.990542 0.024727
-27.0669 -132.431 471.966 -0.0838676 -0.106888 0.990728 0.024727
-26.7291 -132.069 472.047 -0.0698838 -0.107099 0.991789 0.0193121
-26.4504 -131.606 471.937 -0.0713295 -0.117319 0.990529 0.0202678
-26.1851 -131.147 472.01 -0.0709085 -0.117405 0.990549 0.0202678
-25.9199 -130.689 472.084 -0.0704875 -0.11749 0.990569 0.0202678
-28.0665 -130.378 471.872 -0.0568895 -0.0549296 0.996868 0.0439851
-27.7408 -129.874 471.92 -0.0557687 -0.062113 0.99651 0.0439851
-27.412 -129.108 472.283 -0.0839908 -0.0997281 0.991463 0.024727
-27.0993 -128.721 472.349 -0.0829816 -0.0988037 0.991641 0.024727
-26.7224 -128.35 472.103 -0.0660404 -0.119599 0.990623 0.0231239
-26.4612 -127.889 472.215 -0.0733585 -0.12174 0.989847 0.0249631
-26.2048 -127.404 472.227 -0.0682046 -0.127728 0.989461 0.0218203
-25.9429 -126.932 472.307 -0.0676964 -0.13175 0.988969 0.0218203
-25.7731 -125.81 472.304 -0.096288 -0.106954 0.989591 0.0303921
-28.0923 -126.668 472.166 -0.0638207 -0.103431 0.992587 0.0439851
-27.7689 -126.168 472.241 -0.0626787 -0.110622 0.991884 0.0439851
-27.4459 -125.668 472.318 -0.061533 -0.11781 0.991128 0.0439851
-27.0967 -125.216 472.493 -0.0734962 -0.114173 0.990739 0.0400405
-26.737 -124.667 472.502 -0.0611938 -0.144817 0.987564 0.0243932
-26.4971 -124.154 472.551 -0.067957 -0.136051 0.988368 0.0272095
-26.1888 -123.595 472.633 -0.0734951 -0.146432 0.986487 0.030094
-26.0457 -122.817 472.744 -0.0675271 -0.146625 0.986885 0.0302971
-25.8037 -122.146 472.784 -0.0988633 -0.153491 0.983192 0.0303921
-28.0618 -124.429 472.563 -0.0623673 -0.213036 0.975052 0.063333
-27.7617 -123.65 472.751 -0.0572018 -0.212331 0.975522 0.063333
-27.4391 -122.053 472.893 -0.0781521 -0.15232 0.985237 0.0400405
-27.1384 -121.537 472.998 -0.0764822 -0.158867 0.984333 0.0400405
-26.8 -121.104 473.035 -0.0647134 -0.164914 0.984183 0.0359318
-26.544 -120.494 473.184 -0.0646899 -0.170463 0.983238 0.0312963
-26.3115 -119.821 473.221 -0.0691196 -0.178799 0.981455 0.0302971
-26.0842 -119.177 473.357 -0.069889 -0.185939 0.980072 0.0302971
-25.8451 -118.512 473.436 -0.101224 -0.199777 0.974599 0.0303921
-28.1272 -120.849 473.339 -0.0571782 -0.2119 0.975617 0.063333
-27.8269 -120.069 473.525 -0.0520124 -0.211189 0.97606 0.063333
-27.5263 -119.289 473.708 -0.0468469 -0.210474 0.976476 0.063333
-27.0745 -118.238 473.941 -0.0741481 -0.185813 0.979783 0.0430012
-26.8429 -117.58 474.084 -0.0716136 -0.187071 0.979733 0.0430012
-26.5982 -116.891 474.065 -0.0583852 -0.184162 0.98116 0.0317899
-26.4079 -116.263 474.21 -0.0561204 -0.184525 0.981224 0.0299019
-26.2184 -115.635 474.34 -0.0551495 -0.186488 0.980908 0.0299019
-25.9065 -114.923 474.282 -0.0728804 -0.23197 0.969989 0.0302971
-28.1923 -117.268 474.111 -0.0519887 -0.210758 0.976155 0.063333
-27.8917 -116.488 474.294 -0.0468232 -0.210042 0.976571 0.063333
-27.591 -115.707 474.475 -0.0416582 -0.209321 0.976959 0.063333
-27.1193 -114.615 474.64 -0.072065 -0.193411 0.978468 0.0430012
-26.888 -113.958 474.787 -0.0695296 -0.194666 0.978402 0.0430012
-26.6421 -113.306 474.936 -0.0540458 -0.186892 0.980893 0.0334927
-26.4782 -112.634 475.115 -0.0474427 -0.185858 0.98143 0.031712
-26.3018 -111.979 475.388 -0.0520302 -0.185471 0.981271 0.0331062
-26.1304 -111.297 475.524 -0.0521204 -0.179778 0.982325 0.0331062
-28.257 -113.686 474.878 -0.0467995 -0.20961 0.976664 0.063333
-27.9562 -112.905 475.059 -0.0416346 -0.208889 0.977053 0.063333
-27.235 -111.915 475.791 -0.0763514 -0.222297 0.971985 0.0472552
-27.0584 -111.22 475.958 -0.0754247 -0.207351 0.975355 0.0472552
-26.8813 -110.522 476.115 -0.0744796 -0.192347 0.978497 0.0472552
-26.6768 -109.718 475.81 -0.053018 -0.173671 0.983376 0.0338368
-26.5217 -109.054 475.976 -0.0456103 -0.165973 0.985075 0.0333263
-26.3843 -108.383 476.092 -0.0448632 -0.157786 0.986454 0.0333263
-26.1591 -107.661 476.129 -0.0547437 -0.148857 0.987342 0.0331062
-28.4232 -110.715 475.848 -0.0872455 -0.178812 0.980007 0.0607708
-27.4469 -109 476.341 -0.0831309 -0.158377 0.983873 0.0472552
-27.2681 -108.296 476.464 -0.0821259 -0.143265 0.986271 0.0472552
-27.0888 -107.59 476.576 -0.081103 -0.128141 0.988434 0.0472552
-26.909 -106.882 476.677 -0.080063 -0.113014 0.990362 0.0472552
-26.692 -105.976 476.305 -0.0469733 -0.118688 0.99182 0.0335309
-26.534 -105.424 476.398 -0.0449521 -0.108979 0.993027 0.0317415
-26.3819 -104.893 476.462 -0.0441878 -0.103257 0.993673 0.0317415
-26.291 -104.307 476.626 -0.0431251 -0.100377 0.994014 0.030926
-28.4649 -107.081 476.32 -0.0620301 -0.0799834 0.994864 0.0607708
-27.4685 -105.335 476.779 -0.0884359 -0.0789939 0.992945 0.0472552
-27.2244 -104.298 476.524 -0.0711181 -0.114672 0.990855 0.0526798
-27.0079 -103.445 476.654 -0.042263 -0.0977785 0.99431 0.0388157
-26.856 -102.874 476.714 -0.0402555 -0.0893445 0.995187 0.0388157
-26.7038 -102.301 476.769 -0.038247 -0.0809129 0.995987 0.0388157
-26.5533 -101.734 476.698 -0.0337907 -0.0793498 0.996274 0.0299111
-26.4103 -101.273 476.717 -0.0354555 -0.0765187 0.996438 0.0285962
-26.272 -100.815 476.756 -0.0347096 -0.0731665 0.996716 0.0285962
-27.4082 -101.25 476.771 -0.0454972 -0.0538968 0.997509 0.0526798
-27.2375 -100.598 476.809 -0.040544 -0.0393157 0.998404 0.0526798
-27.0664 -99.9443 476.837 -0.035601 -0.0247833 0.999059 0.0526798
-26.8619 -99.0204 476.896 -0.0301555 -0.0514033 0.998223 0.0391697
-26.7095 -98.5143 476.925 -0.0283425 -0.045483 0.998563 0.0391697
-26.5563 -98.0184 476.777 -0.0124613 -0.0855539 0.996256 0.0307541
-26.4395 -97.7042 476.805 -0.0110065 -0.0853581 0.99629 0.0307541
-26.3671 -97.4735 476.782 -0.00914929 -0.084885 0.996349 0.0314161
-27.411 -97.5112 476.833 -0.0151767 0.0205438 0.999674 0.0526798
-27.2379 -96.8496 476.817 -0.0103275 0.0347673 0.999342 0.0526798
-26.8464 -95.6914 476.924 -0.00665498 -0.0751104 0.997153 0.0575763
-26.7532 -95.2183 476.96 -0.00323274 -0.0738635 0.997263 0.0575763
-26.7014 -94.6671 477.069 0.00397129 -0.095692 0.995403 0.03249
-26.5676 -94.2974 477.072 0.0106587 -0.0968882 0.995238 0.0314161
-26.4718 -94.023 477.097 0.0119274 -0.0972509 0.995188 0.0314161
-26.3759 -93.7486 477.123 0.0131959 -0.0976134 0.995137 0.0314161
-27.0398 -92.9231 477.131 0.0157323 -0.0735782 0.997165 0.0575763
-26.9465 -92.4497 477.164 0.0191475 -0.0723267 0.997197 0.0575763
-26.8533 -91.9761 477.196 0.022561 -0.0710748 0.997216 0.0575763
-26.7599 -91.5024 477.227 0.0259726 -0.0698225 0.997221 0.0575763
-26.6666 -91.0286 477.258 0.0293822 -0.0685699 0.997214 0.0575763
-26.5681 -90.56 477.163 0.00347815 -0.0357049 0.999356 0.0312922
-26.4817 -90.3016 477.485 0.0342157 -0.10989 0.993355 0.0314161
-26.3859 -90.0273 477.512 0.0354799 -0.110247 0.993271 0.0314161
-27.0465 -89.2071 477.398 0.0448708 -0.0695015 0.996572 0.0575763
-26.9531 -88.7331 477.426 0.0482686 -0.0682461 0.9965 0.0575763
-26.8597 -88.2589 477.454 0.0516636 -0.0669906 0.996415 0.0575763
-26.7663 -87.7847 477.48 0.0550556 -0.065735 0.996317 0.0575763
-26.6729 -87.3103 477.506 0.0584445 -0.0644794 0.996206 0.0575763
-24.7567 -81.7624 367.322 0.135587 0.184012 0.973527 0.00708943
-25.265 -81.0819 367.268 0.135136 0.173843 0.975457 0.00708943
-25.7723 -80.4026 367.221 0.134666 0.163577 0.977296 0.00708943
-26.2617 -79.7483 367.337 0.121005 0.170942 0.977822 0.00714152
-26.7503 -79.1077 367.426 0.125275 0.177214 0.976167 0.00707738
-27.1745 -78.0885 366.842 0.099109 0.0834488 0.991571 0.0125824
-24.8368 -77.9052 366.723 0.136863 0.124848 0.982691 0.00708943
-25.3394 -77.2323 366.711 0.136319 0.114161 0.984065 0.00708943
-25.841 -76.5606 366.706 0.135757 0.103391 0.985333 0.00708943
-26.3326 -75.9031 366.8 0.124401 0.107548 0.986386 0.00714152
-26.8261 -75.2626 366.871 0.128741 0.110625 0.985489 0.00707738
-27.3375 -74.6206 366.869 0.129433 0.0987942 0.986654 0.00707738
-27.5951 -73.4677 366.645 0.114339 0.0198827 0.993243 0.0125824
-24.8482 -74.1931 366.262 0.136588 0.045909 0.989564 0.00634473
-25.3815 -73.4259 366.396 0.137023 0.0518181 0.989212 0.00708943
-25.8775 -72.7618 366.433 0.136358 0.0406384 0.989826 0.00708943
-26.3699 -72.1031 366.517 0.127386 0.0412538 0.990995 0.00714152
-26.8653 -71.4634 366.583 0.131727 0.0408421 0.990444 0.00707738
-27.3704 -70.8294 366.628 0.132327 0.0285407 0.990795 0.00707738
-27.5926 -69.7228 366.668 0.128904 -0.0326023 0.991121 0.0125824
-24.8569 -70.4312 366.199 0.137423 -0.0123922 0.990435 0.00634473
-25.3615 -69.7401 366.282 0.136861 -0.0234159 0.990313 0.00634473
-25.8652 -69.0503 366.371 0.13628 -0.0344765 0.99007 0.00634473
-26.3738 -68.3626 366.49 0.130371 -0.0360673 0.990809 0.00676205
-26.8558 -67.6811 366.582 0.130087 -0.0479559 0.990342 0.00676205
-27.3645 -66.8779 366.68 0.130699 -0.099545 0.986412 0.00581193
-27.7136 -65.9845 366.855 0.130925 -0.11482 0.984721 0.00878645
-24.8356 -66.7104 366.354 0.137793 -0.071854 0.987851 0.00634473
-25.3346 -66.0269 366.477 0.137135 -0.0830285 0.987067 0.00634473
-25.8326 -65.3448 366.608 0.136459 -0.0942181 0.986155 0.00634473
-26.3215 -64.6923 366.786 0.134421 -0.115581 0.984161 0.00530499
-26.8156 -63.9625 366.95 0.133024 -0.132537 0.982211 0.00581193
-27.3044 -63.2192 367.12 0.132466 -0.141414 0.981048 0.00581193
-27.6536 -62.345 367.349 0.136563 -0.155937 0.978281 0.00878645
-24.7842 -63.0308 366.727 0.137669 -0.131866 0.981661 0.00634473
-25.2777 -62.3549 366.891 0.136915 -0.143071 0.980196 0.00634473
-25.6963 -61.8164 367.184 0.139766 -0.171446 0.975229 0.00413789
-26.2375 -61.0921 367.375 0.136132 -0.173052 0.975459 0.00521377
-26.7369 -60.339 367.572 0.136918 -0.17583 0.974852 0.00449809
-27.2406 -59.5834 367.817 0.137147 -0.187584 0.972627 0.00583048
-27.7466 -58.8271 368.036 0.137093 -0.192163 0.97174 0.00583048
-24.7029 -59.3922 367.319 0.137039 -0.191773 0.971825 0.00634473
-25.0798 -58.9353 367.624 0.140863 -0.186571 0.972291 0.00413789
-25.5995 -58.2029 367.842 0.140597 -0.190666 0.971534 0.00413789
-26.1259 -57.4836 368.106 0.138264 -0.194923 0.971024 0.00407589
-26.6288 -56.7527 368.347 0.141216 -0.199302 0.96971 0.00518408
-27.1487 -56.0228 368.573 0.141058 -0.201431 0.969293 0.00518408
-27.621 -55.3144 368.905 0.140407 -0.205443 0.968545 0.00577551
-24.966 -55.3257 368.521 0.140522 -0.203762 0.968883 0.00328408
-25.4789 -54.6092 368.745 0.139684 -0.203156 0.969132 0.00328408
-25.992 -53.8925 368.969 0.138846 -0.20255 0.969379 0.00328408
-26.501 -53.181 369.214 0.141353 -0.203665 0.968783 0.00422917
-27.0145 -52.4688 369.476 0.141183 -0.203935 0.968751 0.00462295
-27.5333 -51.7496 369.702 0.14107 -0.201317 0.969315 0.00462295
-27.9694 -51.1225 369.965 0.137549 -0.194562 0.971198 0.00631361
-24.859 -51.7251 369.256 0.140949 -0.200476 0.969506 0.00328408
-25.381 -51.0357 369.52 0.139432 -0.19966 0.969894 0.00284963
-25.8672 -50.2471 369.811 0.141387 -0.186047 0.972315 0.00753261
-26.3837 -49.5678 370.048 0.139279 -0.17914 0.973915 0.00957652
-26.89 -48.9447 370.251 0.138571 -0.175754 0.974633 0.00987669
-27.3984 -48.3266 370.432 0.137311 -0.169668 0.975889 0.00987669
-27.8171 -47.8334 370.623 0.13264 -0.165262 0.97729 0.0121798
-24.9632 -45.2359 371.228 0.117556 -0.102927 0.987718 0.0791227
-25.2455 -45.2952 371.255 0.112872 -0.101162 0.988446 0.0791227
-25.528 -45.3546 371.281 0.108182 -0.0993919 0.98915 0.0791227
-25.3143 -46.995 370.442 0.134996 -0.154156 0.978781 0.0126852
-25.8057 -46.4424 370.594 0.133227 -0.146883 0.980141 0.0126852
-26.2979 -45.8891 370.741 0.13145 -0.139601 0.981444 0.0126852
-26.8004 -45.3314 370.838 0.133267 -0.142732 0.980748 0.0142049
-27.3005 -44.7854 370.983 0.131874 -0.136466 0.981828 0.0142049
-27.784 -44.2958 370.97 0.13103 -0.144037 0.980859 0.0192992
-24.9409 -41.4813 371.521 0.0836321 -0.0528859 0.995092 0.0791227
-25.2238 -41.5407 371.541 0.0788884 -0.051077 0.995574 0.0791227
-25.5068 -41.6001 371.56 0.0741412 -0.0492663 0.99603 0.0791227
-25.3965 -42.6267 370.655 0.119088 -0.082381 0.98946 0.0488206
-25.7765 -42.6685 371.019 0.128929 -0.129347 0.983182 0.019202
-26.2541 -42.1654 371.147 0.127551 -0.124839 0.983944 0.019202
-26.7514 -41.6481 371.155 0.130731 -0.129422 0.982934 0.0211498
-27.254 -41.1724 371.128 0.127845 -0.124375 0.983965 0.0260073
-27.7384 -40.7053 371.249 0.127646 -0.122531 0.984222 0.0260073
-25.7519 -29.957 372.334 0.0666058 0.371392 0.926084 0.175037
-24.9331 -37.7296 371.625 0.0491398 -0.00226985 0.998789 0.0791227
-25.2165 -37.7891 371.638 0.0443704 -0.000449769 0.999015 0.0791227
-25.5 -37.8487 371.65 0.0396011 0.00136989 0.999215 0.0791227
-25.7836 -37.9083 371.661 0.034832 0.00318898 0.999388 0.0791227
-25.8158 -38.5921 371.046 0.12144 -0.0846219 0.988985 0.0488206
-26.2587 -38.3495 371.23 0.120599 -0.103381 0.987304 0.0356043
-26.7658 -37.8877 370.986 0.124399 -0.114415 0.985614 0.0391698
-27.2352 -37.4215 371.1 0.125896 -0.117332 0.98508 0.0391698
-27.7043 -36.9556 371.217 0.127392 -0.120248 0.984536 0.0391698
-28.3695 -35.2781 371.519 0.101567 -0.0977769 0.990012 0.0365172
-25.8126 -26.8044 370.41 0.0329117 0.646083 0.762557 0.175037
-25.908 -27.7429 371.138 0.0387694 0.572312 0.819119 0.175037
-26.007 -28.7161 371.755 0.0446248 0.488486 0.87143 0.175037
-25.5076 -34.1003 371.55 0.0049474 0.0519489 0.998637 0.0791227
-25.7917 -34.16 371.554 0.000195239 0.0537419 0.998555 0.0791227
-25.8374 -35.0568 371.119 0.114358 -0.116451 0.986591 0.0479814
-26.2872 -34.6264 370.933 0.124626 -0.117016 0.98528 0.0499425
-26.7371 -34.1697 371.244 0.127255 -0.140759 0.981831 0.0452443
-27.2606 -33.5396 371.084 0.125903 -0.143727 0.981576 0.0476876
-27.7283 -32.8255 371.196 0.132728 -0.149231 0.979854 0.0485719
-28.3012 -31.6346 371.983 0.110608 -0.157322 0.981334 0.0365172
-27.0148 -26.7116 350.304 -0.0608636 0.946077 -0.318172 0.209178
-27.1949 -25.1216 355.745 -0.0643751 0.968968 -0.238658 0.209178
-26.0821 -25.7043 369.378 0.0126833 0.723774 0.689921 0.175037
-26.1731 -26.5998 370.245 0.0177341 0.662974 0.748433 0.175037
-25.7854 -31.685 371.205 0.0558934 -0.132505 0.989605 0.0831205
-25.797 -31.7807 371.063 0.113878 -0.136769 0.984036 0.0615212
-26.2344 -31.0048 371.269 0.120187 -0.174129 0.977361 0.0537978
-26.7073 -30.3833 371.481 0.13365 -0.180301 0.974489 0.0518566
-27.1989 -29.7312 371.612 0.126759 -0.200287 0.971503 0.0503977
-27.6843 -28.8474 372.424 0.11368 -0.201905 0.972785 0.0365172
-28.2015 -28.0403 372.661 0.119312 -0.216788 0.9689 0.0365172
-26.3163 -29.129 343.746 -0.0512268 0.924372 -0.378037 0.209178
-26.5805 -26.7963 349.976 -0.0530304 0.945308 -0.32184 0.209178
-26.7652 -25.166 355.46 -0.055168 0.968228 -0.243907 0.209178
-26.9403 -27.5499 371.081 -0.144377 -0.116209 0.982675 0.176402
-25.8121 -30.6398 371.223 0.0507113 -0.296941 0.953548 0.133913
-25.7135 -28.1597 371.717 0.12001 -0.221344 0.967783 0.0615212
-26.1635 -27.4643 371.939 0.123231 -0.238585 0.963271 0.0615212
-26.5913 -26.7997 372.341 0.140621 -0.2428 0.95983 0.0513514
-27.0699 -25.9433 372.614 0.137598 -0.2529 0.957658 0.0498657
-27.561 -25.2898 373.262 0.122068 -0.260874 0.957624 0.0365172
-28.0703 -24.495 373.552 0.127575 -0.275501 0.952798 0.0365172
-26.9148 -13.5115 343.844 -0.0381625 -0.603032 -0.796804 0.196387
-26.6818 -20.1124 349.217 -0.0339315 -0.664361 -0.746641 0.196387
-26.5027 -25.1878 354.215 -0.0275149 -0.744729 -0.666799 0.196387
-26.636 -29.7604 371.37 -0.101277 -0.471347 0.876114 0.161605
-25.7277 -27.3106 372.33 0.0678705 -0.335226 0.93969 0.133913
-25.6575 -25.3817 372.682 0.126256 -0.302407 0.94478 0.0954364
-25.8825 -24.4777 373.274 0.140218 -0.284888 0.94825 0.0535849
-26.3764 -23.4745 373.753 0.145815 -0.291031 0.945536 0.0480533
-26.8836 -22.4694 374.125 0.142831 -0.284229 0.948058 0.041717
-27.4377 -21.4942 374.607 0.148787 -0.288394 0.945881 0.0375176
-27.9786 -20.5006 375.001 0.153756 -0.295488 0.942892 0.0375176
-28.6788 -19.6059 376.037 0.096009 -0.265445 0.959334 0.0363181
-26.7198 -15.2873 345.203 -0.0358857 -0.616737 -0.786351 0.196387
-26.5001 -21.5101 350.483 -0.0309587 -0.682322 -0.730396 0.196387
-26.3343 -26.2073 355.388 -0.0234316 -0.768086 -0.639918 0.196387
-26.6424 -26.7374 372.884 -0.079714 -0.420439 0.903812 0.161605
-25.6332 -24.0317 373.568 0.0849279 -0.372924 0.923967 0.133913
-25.5147 -21.9899 373.883 0.141447 -0.368621 0.918755 0.0954364
-25.7223 -21.0511 374.33 0.153745 -0.309948 0.93824 0.0535849
-26.2135 -20.0488 374.813 0.157622 -0.306729 0.938655 0.0480533
-26.6729 -19.1537 375.63 0.156747 -0.288272 0.944632 0.0329083
-27.239 -18.1405 376.032 0.160685 -0.28419 0.945207 0.0329083
-27.7278 -17.1173 376.426 0.15536 -0.278946 0.947656 0.0306349
-28.4074 -16.441 376.957 0.13195 -0.251913 0.958712 0.0319854
-26.648 -23.6293 374.221 -0.057804 -0.367822 0.928098 0.161605
-25.5286 -20.8029 374.938 0.101784 -0.409814 0.906472 0.133913
-24.872 -19.1141 375.604 0.14793 -0.33705 0.929793 0.0419878
-25.3971 -18.0242 376.071 0.150714 -0.319751 0.935438 0.0419878
-25.9253 -16.9281 376.521 0.153448 -0.302338 0.940769 0.0419878
-26.4868 -15.7168 376.732 0.163386 -0.253437 0.953454 0.0229898
-27.0693 -14.8884 377.108 0.167096 -0.245214 0.95496 0.0185559
-27.6648 -14.0575 377.423 0.168243 -0.23947 0.956216 0.0185559
-28.2994 -13.5994 377.678 0.170321 -0.214846 0.961682 0.0155268
-28.7076 -12.6267 378.057 0.168721 -0.220913 0.960589 0.0207967
-24.1663 -16.8288 376.264 0.154716 -0.297549 0.942087 0.0419878
-24.6982 -15.7248 376.69 0.157381 -0.280016 0.947007 0.0419878
-25.2332 -14.6145 377.096 0.159991 -0.262411 0.951601 0.0419878
-25.7711 -13.498 377.484 0.162541 -0.24475 0.955865 0.0419878
-26.3192 -12.1857 377.702 0.167077 -0.226503 0.959574 0.0178242
-26.9291 -11.3903 377.927 0.169007 -0.211843 0.962579 0.0155098
-27.5512 -10.7077 378.172 0.170411 -0.202324 0.964378 0.0155268
-28.1672 -10.0011 378.428 0.170578 -0.199193 0.965 0.0155268
-28.9081 -9.48552 378.602 0.1799 -0.191255 0.964913 0.0178671
-24.0148 -13.3932 377.211 0.163755 -0.239904 0.956886 0.0419878
-24.5565 -12.2688 377.575 0.166226 -0.222199 0.960727 0.0419878
-24.9977 -10.3279 377.897 0.163376 -0.223212 0.960981 0.0183585
-25.5876 -9.25969 378.127 0.168577 -0.203221 0.964512 0.0118246
-26.1959 -8.53155 378.385 0.168399 -0.200237 0.965167 0.0118246
-26.7994 -7.80617 378.645 0.166671 -0.195789 0.966379 0.0123487
-27.427 -7.1002 378.876 0.170632 -0.186627 0.967499 0.0155268
-28.133 -6.51343 379.04 0.175935 -0.185921 0.966685 0.0178671
-28.7821 -5.8619 379.283 0.175977 -0.18381 0.967081 0.0178671
-23.4044 -5.60089 379.1 0.155269 -0.16372 0.974211 0.0437866
-24.0436 -5.34384 379.243 0.152518 -0.155665 0.975964 0.0437866
-24.6835 -5.08651 379.382 0.149752 -0.147588 0.977646 0.0437866
-25.4178 -5.01622 379.298 0.171772 -0.159046 0.972213 0.0289455
-26.0711 -4.81136 379.164 0.168183 -0.168845 0.971188 0.0165243
-26.6703 -4.22734 379.38 0.163819 -0.170088 0.971717 0.0169943
-27.3604 -3.53891 379.464 0.171961 -0.180579 0.968412 0.0178671
-28.0107 -2.88621 379.701 0.172001 -0.178466 0.968796 0.0178671
-28.6612 -2.23324 379.936 0.17204 -0.176352 0.969176 0.0178671
-23.3289 -1.88129 379.527 0.148824 -0.0670979 0.986585 0.0437866
-23.9734 -1.62209 379.64 0.145936 -0.0588938 0.987539 0.0437866
-24.6187 -1.3626 379.748 0.143038 -0.0506882 0.988418 0.0437866
-25.3393 -1.31304 379.762 0.165476 -0.0928933 0.981829 0.0289455
-25.9215 -0.673675 380.361 0.162325 -0.071687 0.98413 0.0507214
-26.5612 -0.586226 380.044 0.16288 -0.101935 0.981366 0.0249295
-27.1348 -0.182059 380.196 0.158831 -0.0925194 0.982961 0.0264511
-27.7245 0.00520837 380.408 0.170688 -0.0950403 0.980731 0.0310888
-28.3146 0.303573 380.538 0.1714 -0.0863836 0.981407 0.0310888
-29.7958 1.54274 380.575 0.0807803 -0.130629 0.988135 0.0444121
-27.0038 19.8295 341.98 0.0075457 -0.979118 -0.203154 0.00167184
-26.9849 19.0935 345.585 0.00685688 -0.980382 -0.196988 0.00167184
-26.9667 18.3802 349.194 0.00616777 -0.981607 -0.190814 0.00167184
-26.949 17.6896 352.808 0.00547845 -0.982792 -0.184632 0.00167184
-26.9319 17.0217 356.426 0.00478902 -0.983938 -0.178444 0.00167184
-25.77 16.3204 371.579 0.0158065 -0.946736 -0.321624 0.110565
-25.8492 15.0301 374.31 -0.0240377 -0.845897 -0.532804 0.110565
-25.1779 7.6244 380.82 0.108366 0.416656 0.902582 0.109328
-25.285 4.22699 380.88 0.140763 0.201075 0.969409 0.0817152
-25.918 3.0758 380.383 0.150239 0.059509 0.986857 0.0507214
-26.4819 3.16135 380.585 0.144667 0.0570278 0.987836 0.0490423
-27.0976 3.43817 380.504 0.158735 -0.0202937 0.987113 0.0310888
-27.6925 3.73898 380.605 0.159342 -0.0116385 0.987155 0.0310888
-28.2877 4.03998 380.703 0.159937 -0.00299273 0.987123 0.0310888
-28.8833 4.34116 380.799 0.160519 0.00564154 0.987017 0.0310888
-26.9115 19.978 341.27 0.0079065 -0.978858 -0.204387 0.00167184
-26.8926 19.2375 344.874 0.00721776 -0.98013 -0.198223 0.00167184
-26.8742 18.5197 348.482 0.0065287 -0.981363 -0.19205 0.00167184
