ply
format ascii 1.0
comment Author: CloudCompare (TELECOM PARISTECH/EDF R&D)
element vertex 708
property float x
property float y
property float z
property uchar red
property uchar green
property uchar blue
property float nx
property float ny
property float nz
end_header
-142.773 -151.378 463.241 235 235 209 -0.187733 -0.088926 -0.978186 
-140.675 -150.943 462.654 233 235 213 -0.184576 -0.271435 -0.944593 
-138.647 -150.661 462.222 234 233 205 0.0105911 -0.476598 -0.879058 
-136.89 -150.467 462.445 234 234 206 0.110604 -0.191044 -0.97533 
-135.087 -150.302 462.55 234 236 200 0.00956467 0.258246 -0.966032 
-133.248 -150.084 462.556 235 234 202 -0.092538 0.277614 -0.956226 
-131.315 -149.873 462.312 233 236 209 0.0446946 0.116206 -0.992219 
-129.655 -149.808 462.765 235 235 209 0.174059 -0.153582 -0.972685 
-127.875 -149.628 462.899 234 235 218 0.139255 -0.267797 -0.953359 
-126.176 -149.6 463.25 234 234 224 -0.141114 0.0658534 -0.987801 
-124.029 -149.018 462.369 233 235 224 -0.323197 0.299256 -0.897769 
-122.067 -148.804 461.988 233 235 224 -0.187367 0.108476 -0.976282 
-120.139 -148.467 461.665 234 234 224 -0.0264146 0.0968534 -0.994948 
-118.427 -148.341 461.934 233 235 224 0.339147 -0.142223 -0.92992 
-116.932 -148.477 462.819 234 235 220 0.145172 -0.34618 -0.926868 
-114.984 -148.121 462.407 233 235 226 0.215645 -0.329142 -0.919327 
-113.58 -148.369 463.57 233 234 228 0.218477 -0.356463 -0.908406 
-111.628 -147.984 463.122 233 235 226 0.0320622 -0.416808 -0.908429 
-109.97 -147.966 463.539 233 235 226 0.325146 -0.168179 -0.930589 
-108.411 -148.031 464.256 233 234 228 0.229525 -0.207666 -0.950891 
-106.631 -147.827 464.295 233 234 228 0.101909 -0.0833798 -0.991293 
-104.945 -147.742 464.619 233 234 228 0.154043 -0.0271841 -0.98769 
-103.219 -147.669 464.826 233 234 228 0.0797776 -0.85476 -0.512856 
-101.415 -147.456 464.768 233 234 228 -0.108476 -0.187367 -0.976282 
-99.4901 -147.073 464.304 233 234 228 -0.187367 0.108476 -0.976282 
-97.6511 -146.918 464.122 233 235 226 0.102359 -0.852989 -0.511793 
-95.9915 -146.736 464.477 234 234 226 0.233831 0.111832 -0.965824 
-94.341 -146.807 464.907 233 235 226 0.00903766 -0.171716 -0.985105 
-92.4377 -146.41 464.444 233 234 228 -0.095214 0.995419 0.00865582 
-90.8441 -146.494 465.05 233 234 228 0.0938162 -0.948586 -0.302297 
-88.8454 -145.995 464.223 233 234 228 -0.0495974 -0.267826 -0.96219 
-87.229 -145.994 464.729 233 234 228 -0.11016 -0.210305 -0.97141 
-85.1856 -145.503 463.707 233 234 228 -0.250074 0.206583 -0.945932 
-83.492 -145.367 463.907 233 234 228 -0.0538569 0.398541 -0.915568 
-81.6695 -145.109 463.634 233 234 228 0.428182 0.150442 -0.891082 
-80.3753 -145.508 465.327 233 234 228 0.790283 0.238339 -0.564488 
-79.0758 -145.845 467.024 233 234 228 -0.108476 0.976282 0.187367 
-77.0006 -145.227 465.762 233 234 228 -0.293426 0.141279 -0.945485 
-75.2972 -145.173 465.938 233 234 228 0.454257 -0.174714 -0.873571 
-74.3615 -142.204 466.527 233 234 228 0.0982273 -0.927702 -0.360167 
-71.9453 -145.013 466.462 233 234 228 0.168179 0.325146 -0.930589 
-70.1875 -144.81 466.379 233 234 228 -0.0108268 0.552167 -0.833663 
-68.5185 -144.704 466.647 233 234 228 0.986057 0.0469551 0.159647 
-76.2797 -157.989 507.21 233 234 228 0.063639 -0.118187 -0.99095 
-65.0909 -144.43 466.806 233 234 228 -0.944083 -0.0726218 -0.321611 
-63.1771 -143.991 465.986 233 234 228 0.0544412 0.468194 -0.881947 
-61.7006 -144.222 467.102 233 234 228 0.463627 0.463627 -0.75505 
-60.1103 -144.218 467.703 233 234 228 0.198875 0.386051 -0.900785 
-58.4171 -144.112 467.85 233 234 228 -0.0515848 -0.34046 -0.938843 
-56.5918 -143.801 467.365 233 234 228 0.0801953 -0.790497 -0.607193 
-54.9682 -143.771 467.814 233 234 228 0.538454 -0.103108 -0.836323 
-53.5586 -144.106 469.331 233 234 228 0.0461011 0.156744 -0.986563 
-51.5721 -143.497 467.989 233 234 228 -0.0912355 0.963041 0.253432 
-50.1402 -143.814 469.432 233 234 228 0.504709 0.349414 -0.789417 
-48.4909 -143.807 469.798 233 234 228 0.0247782 -0.0247782 -0.999386 
-46.7203 -143.557 469.503 233 234 228 -0.263105 -0.00974463 -0.964718 
-44.8758 -143.1 468.752 233 234 228 0.209845 0.678909 -0.703596 
-43.4803 -143.542 470.501 233 234 228 0.263105 -0.00974463 -0.964718 
-41.6243 -143.071 469.654 233 234 228 0.990295 0.0272558 0.136279 
-54.3038 -169.258 553.015 233 234 228 0.156089 0.197713 -0.967753 
-38.3051 -142.96 470.201 233 234 228 -0.97592 -0.00947495 -0.217924 
-36.6422 -142.892 470.45 233 234 228 0.074071 -0.941759 -0.328029 
-34.8102 -142.494 469.649 233 234 228 -0.0285275 0.199692 -0.979443 
-33.2362 -142.548 470.411 233 234 228 0.408071 0.618689 -0.671343 
-31.6773 -142.747 471.353 233 234 228 -0.0317732 0.434233 -0.90024 
-29.8451 -142.227 470.415 233 234 228 0.168179 0.325146 -0.930589 
-28.3798 -142.639 472.026 233 234 228 -0.0858937 0.162244 -0.983005 
-26.4225 -141.892 470.184 233 234 228 -0.267797 -0.139255 -0.953359 
-24.8368 -141.991 470.942 233 234 228 0.529361 -0.078841 -0.844725 
-23.3091 -142.269 472.183 233 234 228 0.10007 0.0818757 -0.991606 
-21.5033 -141.784 471.276 233 234 228 0.0412857 -0.00825713 -0.999113 
-19.9493 -141.983 472.344 233 234 228 -0.0482131 0.22178 -0.973904 
-18.1154 -141.496 471.189 233 234 228 -0.263005 -0.0292228 -0.964352 
-16.455 -141.447 471.412 233 234 228 0.36206 0.245266 -0.899309 
-14.8921 -141.624 472.455 233 234 228 0.278085 -0.072096 -0.957847 
-13.1999 -141.435 472.376 233 234 228 0.116711 -0.307693 -0.9443 
-11.5621 -141.365 472.755 233 234 228 -0.118187 -0.063639 -0.99095 
-9.78947 -141.034 471.958 233 234 228 0.128349 -0.16784 -0.977423 
-8.23038 -141.289 473.176 233 234 228 0.994948 0.0968534 -0.0264146 
-9.00604 -143.132 489.673 233 234 228 0.0309773 0.34075 -0.939644 
-4.8901 -141.035 473.374 233 234 228 -0.935082 -0.0735458 -0.346716 
-3.24129 -140.977 473.698 233 234 228 -0.238512 0.114071 -0.964417 
-1.46835 -140.488 472.588 233 234 228 -0.142223 0.339147 -0.92992 
0.148861 -140.59 473.31 233 234 228 0.21352 0.6908 -0.6908 
1.80624 -140.561 473.578 233 234 228 0.15836 0.767437 -0.621259 
3.43336 -140.579 474.179 233 234 228 -0.0943923 0.283177 -0.954411 
5.17071 -140.192 473.321 233 234 228 -0.367514 -0.272672 -0.889148 
6.90177 -139.843 472.491 233 234 228 -0.0301893 0.29183 -0.955994 
8.5168 -139.92 473.272 233 234 228 0.130043 0.626572 -0.768437 
10.1834 -139.705 473.19 233 234 228 0.155971 0.635883 -0.755861 
11.8102 -139.841 473.985 233 234 228 0.419508 0.147395 -0.895705 
13.449 -139.972 474.69 233 234 228 0.12019 -0.0832086 -0.989258 
15.1297 -139.696 474.362 233 234 228 -0.0251799 -0.0419665 -0.998802 
16.7906 -139.648 474.579 233 234 228 0.190582 0.130398 -0.972972 
18.4444 -139.658 474.987 233 234 228 -0.102625 0.467512 -0.87801 
20.1289 -139.302 474.39 233 234 228 -0.0333849 0.612056 -0.790109 
21.7794 -139.411 475.023 233 234 228 -0.135102 0.218241 -0.966498 
23.472 -138.932 473.978 233 234 228 -0.211396 0.584449 -0.78341 
25.1218 -138.95 474.458 233 234 228 0.446803 0.148934 -0.882149 
26.7629 -139.204 475.628 233 234 228 0.41236 -0.122594 -0.902735 
28.4246 -139.192 475.97 233 234 228 -0.157807 -0.241971 -0.957364 
30.1024 -138.729 474.939 233 234 228 0.145172 -0.34618 -0.926868 
31.7483 -139.062 476.462 233 234 228 0.308677 -0.217217 -0.926032 
33.4157 -138.811 476.092 233 234 228 -0.399095 -0.171041 -0.900815 
35.089 -138.339 474.82 233 234 228 -0.298548 0.16586 -0.939872 
36.75 -138.311 475.097 233 234 228 -0.092538 0.277614 -0.956226 
38.4006 -137.994 474.619 233 234 228 0.0468067 0.177866 -0.982941 
40.0646 -138.081 475.28 233 234 228 0.450931 0.0549916 -0.890863 
41.7423 -138.308 476.269 233 234 228 0.213965 -0.00930283 -0.976797 
43.3962 -138.075 475.989 233 234 228 -0.431658 -0.0996134 -0.89652 
45.0345 -137.583 474.661 233 234 228 -0.156744 -0.0461011 -0.986563 
46.7001 -137.648 475.463 233 234 228 -0.0412857 0.00825713 -0.999113 
48.3346 -137.266 474.542 233 234 228 -0.191044 0.110604 -0.97533 
49.9963 -137.235 474.87 233 234 228 0.250515 -0.369808 -0.894698 
51.6758 -137.334 475.509 233 234 228 -0.493406 -0.12622 -0.860592 
53.236 -136.459 472.912 233 234 228 -0.66718 0.105344 -0.73741 
54.8707 -136.263 472.77 233 234 228 0.436038 0.336372 -0.834701 
56.599 -136.697 474.596 233 234 228 0.583209 -0.154729 -0.79745 
58.292 -136.836 475.441 233 234 228 0.329142 0.215645 -0.919327 
59.9614 -136.808 475.735 233 234 228 -0.0710779 0.964629 0.25385 
61.5394 -136.3 474.249 233 234 228 -0.482019 -0.176349 -0.85823 
63.1379 -135.899 473.754 233 234 228 -0.199692 -0.0285275 -0.979443 
64.7887 -135.837 473.565 233 234 228 -0.99968 -0.0239923 -0.00799744 
62.7195 -119.506 418.109 233 234 228 -0.292596 0.521585 -0.801459 
68.0148 -135.323 472.742 233 234 228 0.99095 0.063639 -0.118187 
69.6453 -135.169 472.567 233 234 228 0.297386 -0.187243 -0.936216 
71.3854 -135.432 473.821 233 234 228 0.366689 0.12223 -0.922279 
73.0388 -135.361 473.868 233 234 228 -0.38496 0.703547 -0.597351 
74.5647 -134.843 472.455 233 234 228 -0.466916 0.493597 -0.733725 
76.1841 -134.641 472.299 233 234 228 0.356463 -0.218477 -0.908406 
77.9715 -135.031 473.793 233 234 228 0.318486 0.271303 -0.908274 
79.5707 -134.728 473.484 233 234 228 -0.405177 0.0985566 -0.908911 
81.1203 -134.375 472.463 233 234 228 0.0255869 0.0597027 -0.997888 
82.8705 -134.555 473.585 233 234 228 -0.224847 -0.203433 -0.952921 
84.3154 -133.95 471.635 233 234 228 -0.501849 0.0106776 -0.864889 
85.9686 -133.874 471.814 233 234 228 -0.0103969 0.426275 -0.904534 
87.5938 -133.738 471.713 233 234 228 0.0553408 0.520203 -0.852248 
89.2728 -133.725 472.091 233 234 228 0.292944 0.31638 -0.902268 
91.0024 -133.839 472.837 233 234 228 0.302824 0.0730953 -0.950239 
92.6941 -133.899 473.157 233 234 228 -0.517697 0.204671 -0.830723 
94.0664 -133.18 471.098 233 234 228 -0.435305 0.699126 -0.567215 
95.7734 -133.207 471.689 233 234 228 0.31957 0.143256 -0.936671 
97.4774 -133.212 472.241 233 234 228 -0.0495974 -0.267826 -0.96219 
99.004 -132.884 471.438 233 234 228 -0.632435 -0.0804917 -0.77042 
100.414 -132.378 469.8 233 234 228 -0.520203 0.0553408 -0.852248 
102.01 -132.151 469.67 233 234 228 0.288849 0.288849 -0.912761 
103.831 -132.461 470.862 233 234 228 0.176544 0.435475 -0.88272 
105.382 -132.177 470.381 233 234 228 -0.587188 -0.033237 -0.808768 
106.753 -131.604 468.737 233 234 228 -0.72751 -0.0808344 -0.681319 
108.143 -131.083 467.298 233 234 228 -0.385965 -0.336163 -0.859084 
109.74 -130.949 467.15 233 234 228 -0.159647 -0.0469551 -0.986057 
111.3 -130.775 466.766 233 234 228 0.102625 0.467512 -0.87801 
113.054 -130.88 467.575 233 234 228 -0.0406155 0.0081231 -0.999142 
114.508 -130.489 466.655 233 234 228 -0.114071 0.964417 0.238512 
115.832 -129.915 465.049 233 234 228 -0.740023 0.0341549 -0.671713 
117.211 -129.464 463.777 233 234 228 -0.636524 0.0335013 -0.770529 
118.628 -129.043 462.807 233 234 228 -0.31638 -0.292944 -0.902268 
120.195 -128.949 462.56 233 234 228 -0.37656 0.480438 -0.792074 
121.618 -128.549 461.682 233 234 228 -0.436522 0.595257 -0.674624 
123.125 -128.348 461.195 233 234 228 -0.0982273 -0.360167 -0.927702 
124.719 -128.23 461.191 233 234 228 -0.440376 0.101625 -0.892043 
126.029 -127.734 459.808 233 234 228 -0.536843 0.010956 -0.843611 
127.541 -127.538 459.42 233 234 228 -0.137192 0.242725 -0.960345 
129.13 -127.421 459.43 233 234 228 -0.801513 0.0813129 -0.592423 
130.034 -126.416 456.294 233 234 228 -0.801459 -0.292596 -0.521585 
131.377 -126.012 455.234 233 234 228 -0.16784 -0.128349 -0.977423 
133.065 -126.083 455.72 233 234 228 0.405177 -0.0985566 -0.908911 
134.89 -126.288 456.808 233 234 228 -0.281853 0.404398 -0.870069 
136.041 -125.671 454.966 233 234 228 -0.848624 0.430462 -0.307473 
137.067 -124.954 452.633 233 234 228 -0.748155 0.291654 -0.595988 
138.543 -124.679 452.312 233 234 228 -0.5859 0.3255 -0.74214 
139.756 -124.208 450.86 233 234 228 -0.954411 0.0943923 -0.283177 
140.355 -123.022 446.995 233 234 228 -0.944584 0.00994299 -0.328119 
141.547 -122.531 445.602 233 234 228 -0.770595 -0.106698 -0.628331 
142.667 -121.981 443.964 233 234 228 -0.138539 0.0646515 -0.988244 
144.517 -122.25 445.191 233 234 228 0.284951 -0.433621 -0.854854 
146.066 -122.182 445.241 233 234 228 -0.829058 -0.235106 -0.507334 
146.523 -120.934 441.203 233 234 228 -0.854854 -0.284951 -0.433621 
147.915 -120.706 440.731 233 234 228 -0.523266 0.469598 -0.711105 
149.152 -120.323 439.711 233 234 228 -0.815885 0.514635 -0.263594 
149.919 -119.469 437.027 233 234 228 -0.960345 0.242725 -0.137192 
150.485 -118.421 433.7 233 234 228 -0.761496 0.529175 -0.374295 
152.087 -118.428 434.103 233 234 228 -0.759475 0.296066 -0.57926 
152.755 -117.579 431.237 233 234 228 -0.853084 0.033237 -0.520714 
154.122 -117.37 430.859 233 234 228 -0.739636 0.376306 -0.557971 
154.999 -116.688 428.84 233 234 228 -0.985105 0.171716 0.00903766 
154.564 -114.787 422.49 233 234 228 -0.952492 0.00981951 -0.304405 
156.503 -115.183 424.119 233 234 228 0.17799 -0.0281037 -0.983631 
157.63 -114.844 423.06 233 234 228 -0.959629 -0.00969322 0.281103 
-186.567 -156.7 470.647 235 238 128 0.903723 0.0544412 0.424641 
-184.715 -156.552 470.896 234 237 156 -0.12425 -0.12425 -0.984441 
-182.332 -156.071 470.063 234 236 169 -0.353705 0.563308 -0.746711 
-180.018 -155.561 469.352 236 237 166 -0.393606 0.123705 -0.910918 
-177.434 -154.946 468.058 236 238 173 -0.286428 0.00987681 -0.958051 
-175.471 -154.671 468.031 235 237 161 -0.258246 0.00956467 -0.966032 
-172.989 -154.072 466.9 232 235 161 -0.120355 -0.0648065 -0.990613 
-171.319 -154.038 467.462 233 234 176 0.136279 -0.0272558 -0.990295 
-169.353 -153.792 467.394 235 237 170 0.032979 -0.868447 -0.494685 
-166.913 -153.175 466.292 235 236 176 -0.275894 -0.209679 -0.938039 
-164.792 -152.874 465.852 234 236 187 -0.328119 -0.00994299 -0.944584 
-162.373 -152.252 464.742 235 234 204 -0.13387 -0.026774 -0.990637 
-160.719 -152.28 465.301 235 236 196 0.263499 -0.263499 -0.927975 
-158.976 -152.143 465.665 234 235 177 -0.103411 -0.122213 -0.987102 
-156.677 -151.616 464.765 230 233 177 -0.259444 0.236884 -0.936256 
-154.752 -151.428 464.694 235 235 207 -0.263129 0.115777 -0.957789 
-152.408 -150.809 463.644 235 236 205 -0.340126 0.12069 -0.932603 
-150.327 -150.434 463.178 234 237 194 0.976282 0.108476 0.187367 
-154.825 -155.395 478.213 235 238 195 -0.0247782 0.0247782 -0.999386 
-146.54 -150.017 463.084 234 236 187 -0.836697 0.0334679 -0.546642 
-144.478 -149.652 462.614 237 237 202 0.0637656 -0.100203 -0.992922 
-142.9 -149.659 463.305 234 235 204 0.0509383 -0.315817 -0.947452 
-140.78 -149.292 462.669 234 236 200 -0.383693 0.0311102 -0.922937 
-138.466 -148.736 461.528 234 234 208 -0.106786 0.165033 -0.98049 
-136.962 -148.741 462.38 233 236 216 0.401515 -0.304178 -0.863865 
-135.36 -148.791 462.999 235 235 207 0.203328 -0.0484115 -0.977913 
-133.545 -148.581 463.072 232 234 212 -0.0690032 0.20701 -0.975902 
-131.593 -148.357 462.789 233 235 226 -0.174619 0.407445 -0.89638 
-129.668 -148.03 462.549 234 235 220 -0.0243822 -0.0081274 -0.99967 
-127.881 -147.879 462.668 234 235 220 0.046227 0.138681 -0.989258 
-126.087 -147.746 462.762 233 235 226 0.0687101 -0.225762 -0.971756 
-124.282 -147.542 462.811 233 235 226 0.0251799 0.0419665 -0.998802 
-122.476 -147.419 462.859 232 234 221 0.0710779 0.25385 -0.964629 
-120.777 -147.241 463.177 227 230 214 -0.19118 0.303639 -0.93341 
-118.639 -146.793 462.277 233 235 226 -0.339549 0.465308 -0.817432 
-116.721 -146.518 461.965 234 236 225 0.0969875 -0.937546 -0.334068 
-115.081 -146.45 462.43 234 234 224 0.0969875 -0.937546 -0.334068 
-113.273 -146.297 462.418 233 235 226 -0.0100065 -0.310202 -0.950618 
-111.41 -145.999 462.22 235 235 225 0.17799 -0.0281037 -0.983631 
-109.892 -146.15 463.049 233 235 226 0.213941 -0.132439 -0.967827 
-108.061 -145.862 462.928 233 234 228 0.177866 -0.0468067 -0.982941 
-106.497 -145.915 463.618 233 234 228 0.177866 -0.0468067 -0.982941 
-104.674 -145.719 463.518 233 234 228 -0.854459 -0.128754 -0.503311 
-98.2818 -139.393 448.329 230 232 223 0.142223 -0.339147 -0.92992 
-101.236 -145.471 463.924 233 234 228 0.386051 -0.900785 -0.198875 
-94.5586 -137.486 446.996 233 234 228 -0.576934 -0.603769 -0.5501 
-92.5375 -137.258 445.691 233 234 228 0.33207 -0.873222 -0.356668 
-95.842 -144.865 463.716 233 235 226 0.995573 0.00850917 0.0936009 
-94.1788 -144.83 464.078 233 234 228 0.998802 -0.0419665 -0.0251799 
-95.7964 -148.782 475.625 233 235 226 0.174769 0.027595 -0.984223 
-90.817 -144.668 464.665 233 234 228 -0.849757 -0.0107564 -0.527065 
-88.945 -144.38 464.29 233 234 228 -0.125105 0.420808 -0.898482 
-87.195 -144.249 464.33 233 234 228 0.398459 0.253565 -0.881439 
-85.8258 -144.493 465.713 233 234 228 0.437134 0.622585 -0.649078 
-84.1811 -144.451 466.128 233 234 228 -0.0575855 0.63344 -0.771646 
-82.3333 -144.121 465.782 233 234 228 -0.0108882 0.577076 -0.816618 
-80.7272 -144.156 466.34 233 234 228 0.983005 0.0858937 0.162244 
-86.5131 -153.597 495.126 233 234 228 0.0858937 -0.162244 -0.983005 
-77.2873 -143.868 466.573 233 234 228 -0.926424 -0.0532427 -0.372699 
-75.4276 -143.571 466.135 233 234 228 0.218241 0.135102 -0.966498 
-73.9894 -143.8 467.352 233 234 228 -0.0255869 0.997888 -0.0597027 
-72.1036 -143.43 466.774 233 234 228 -0.124523 0.105366 -0.986606 
-70.3955 -143.335 466.913 233 234 228 -0.063639 0.118187 -0.99095 
-68.59 -143.021 466.611 233 234 228 -0.0406155 -0.0081231 -0.999142 
-66.888 -142.963 466.764 233 234 228 0.0744386 -0.925166 -0.372193 
-64.995 -142.503 466.041 233 234 228 0.42063 0.369644 -0.828513 
-63.7757 -143.117 468.294 233 234 228 0.437134 0.649078 -0.622585 
-61.9576 -142.756 467.883 233 234 228 -0.147017 0.373197 -0.916029 
-60.2307 -142.658 467.908 233 234 228 -0.10711 -0.146058 -0.98346 
-58.3986 -142.328 467.408 233 234 228 0.233116 0.846578 -0.478501 
-57.0685 -142.757 469.257 233 234 228 0.281853 0.453416 -0.84556 
-55.186 -142.298 468.478 233 234 228 -0.0101331 0.334393 -0.942379 
-53.6314 -142.452 469.312 233 234 228 0.987234 0.0276795 0.15685 
-65.0955 -163.671 535.548 233 234 228 -0.0819344 0.64377 -0.76082 
-50.1786 -142.091 469.232 233 234 228 -0.969145 -0.029368 -0.244734 
-48.4666 -141.981 469.268 233 234 228 0.0679548 -0.184449 -0.98049 
-46.7882 -141.844 469.437 233 234 228 0.520714 0.033237 -0.853084 
-45.3923 -142.233 471.155 233 234 228 0.0798191 0.581539 -0.809593 
-43.4505 -141.667 469.895 233 234 228 -0.375406 -0.278527 -0.884021 
-41.6423 -141.359 469.342 233 234 228 -0.0820116 0.0820116 -0.993251 
-39.9947 -141.272 469.655 233 234 228 0.0950639 -0.940077 -0.327442 
-38.5093 -141.591 470.981 233 234 228 -0.0847587 -0.122429 -0.988851 
-36.5294 -140.891 469.308 233 234 228 -0.088926 -0.187733 -0.978186 
-35.028 -141.13 470.534 233 234 228 0.501665 0.151666 -0.851663 
-33.415 -141.114 471.071 233 234 228 -0.0885808 0.206689 -0.974389 
-31.5978 -140.751 470.324 233 234 228 0.072096 -0.278085 -0.957847 
-30.0455 -140.866 471.265 233 234 228 0.145755 0.392417 -0.908165 
-28.2891 -140.624 470.878 233 234 228 -0.139255 -0.267797 -0.953359 
-26.5539 -140.406 470.599 233 234 228 -0.339979 0.41553 -0.843652 
-24.7541 -139.975 469.787 233 234 228 0.0559752 0.503777 -0.862018 
-23.2249 -140.217 470.972 233 234 228 0.517579 -0.315597 -0.795305 
-21.6627 -140.369 471.94 233 234 228 0.290717 0.26746 -0.918667 
-19.9807 -140.267 472.022 233 234 228 0.0875356 -0.165345 -0.982343 
-18.3132 -140.19 472.207 233 234 228 0.188436 0.277111 -0.942179 
-16.6975 -140.109 472.727 233 234 228 -0.0505618 0.273034 -0.960675 
-14.9277 -139.878 472.115 233 234 228 -0.369808 -0.250515 -0.894698 
-13.1231 -139.354 471 233 234 228 0.00852152 0.0766937 -0.997018 
-11.5751 -139.563 472.195 233 234 228 0.441274 -0.365627 -0.819509 
-9.95967 -139.731 472.92 233 234 228 0.0482131 0.22178 -0.973904 
-8.23333 -139.338 472.387 233 234 228 -0.0779959 0.996615 0.0259986 
-6.62604 -139.477 473.175 233 234 228 0.0730953 -0.950239 -0.302824 
-4.89358 -139.106 472.56 233 234 228 0.159647 -0.0469551 -0.986057 
-3.31373 -139.355 473.7 233 234 228 0.0950639 -0.940077 -0.327442 
-1.70018 -139.413 474.437 233 234 228 -0.233116 0.478501 -0.846578 
0.0992202 -138.855 473.004 233 234 228 -0.13387 0.026774 -0.990637 
1.69952 -139.062 474.011 233 234 228 0.442646 -0.203378 -0.873328 
3.32239 -139.147 474.739 233 234 228 -0.329142 -0.215645 -0.919327 
5.14401 -138.357 472.655 233 234 228 -0.353655 0.0750177 -0.932363 
6.75978 -138.491 473.485 233 234 228 0.307473 0.430462 -0.848624 
8.40067 -138.381 473.815 233 234 228 0.405177 -0.0985566 -0.908911 
10.0082 -138.624 474.957 233 234 228 -0.0412744 -0.0247647 -0.998841 
11.7561 -138.136 473.68 233 234 228 -0.263499 -0.263499 -0.927975 
13.4132 -137.989 473.783 233 234 228 0.329097 -0.377852 -0.865403 
15.0312 -138.252 474.935 233 234 228 0.373197 0.147017 -0.916029 
16.6858 -138.117 475.124 233 234 228 0.165033 0.106786 -0.98049 
18.3441 -138.134 475.513 233 234 228 0.386628 -0.0994187 -0.916861 
19.9818 -138.336 476.518 233 234 228 0.095214 -0.00865582 -0.995419 
21.6816 -138.042 475.847 233 234 228 -0.0666848 0.181002 -0.981219 
23.3264 -138 476.382 233 234 228 -0.380805 0.307101 -0.872167 
25.039 -137.345 474.667 233 234 228 -0.382658 0.35797 -0.851722 
26.6901 -137.355 475.166 233 234 228 0.0412857 -0.00825713 -0.999113 
28.3705 -137.199 474.823 233 234 228 0.0903121 -0.210728 -0.973364 
30.0219 -137.239 475.437 233 234 228 0.0752949 -0.914296 -0.397988 
31.6949 -136.892 474.669 233 234 228 0.00787353 -0.00787353 -0.999938 
33.3489 -136.991 475.444 233 234 228 0.413388 -0.100554 -0.904986 
35.0038 -137.067 476.239 233 234 228 0.225887 0.392329 -0.891657 
36.6701 -136.978 476.314 233 234 228 -0.0690032 0.20701 -0.975902 
38.3396 -136.829 476.07 233 234 228 -0.369808 0.250515 -0.894698 
39.9857 -136.354 475.091 233 234 228 -0.41848 0.251088 -0.872829 
41.6474 -136.158 474.625 233 234 228 -0.0446946 -0.116206 -0.992219 
43.3067 -136.112 474.899 233 234 228 0.0498531 -0.249266 -0.967151 
44.9638 -135.975 474.757 233 234 228 -0.148778 0.400556 -0.904113 
46.6018 -135.7 474.524 233 234 228 0.217846 0.0284146 -0.97557 
48.2937 -135.957 475.511 233 234 228 0.010256 0.35896 -0.933297 
49.9136 -135.507 474.667 233 234 228 -0.290717 0.26746 -0.918667 
51.5716 -135.42 474.655 233 234 228 0.061634 -0.0792437 -0.994948 
53.2329 -135.368 474.843 233 234 228 0.011025 0.562276 -0.826876 
54.8876 -135.262 474.833 233 234 228 -0.156332 0.661404 -0.733557 
56.517 -134.991 474.465 233 234 228 0.302824 0.0730953 -0.950239 
58.2432 -135.336 475.869 233 234 228 0.209679 -0.275894 -0.938039 
59.8672 -135.048 475.192 233 234 228 -0.42063 -0.369644 -0.828513 
61.4374 -134.484 473.887 233 234 228 -0.0679548 -0.184449 -0.98049 
63.1382 -134.622 474.866 233 234 228 0.340126 -0.12069 -0.932603 
64.825 -134.708 475.172 233 234 228 -0.291594 0.0502747 -0.95522 
66.3738 -134.106 473.894 233 234 228 -0.111832 0.965824 0.233831 
67.9875 -133.883 473.271 233 234 228 -0.0101331 0.334393 -0.942379 
69.6762 -133.938 473.898 233 234 228 0.420808 -0.125105 -0.898482 
71.3937 -134.078 474.875 233 234 228 0.0930509 -0.258475 -0.961526 
72.9897 -133.782 474.19 233 234 228 -0.647546 -0.158832 -0.745289 
74.4625 -133.098 472.079 233 234 228 -0.636842 0.0111727 -0.770914 
76.054 -132.799 471.661 233 234 228 0.386628 0.0994187 -0.916861 
77.8623 -133.228 473.492 233 234 228 0.447018 -0.253713 -0.857791 
79.5198 -133.17 473.597 233 234 228 -0.210916 -0.255319 -0.943571 
81.0785 -132.846 472.655 233 234 228 -0.591996 -0.181223 -0.785301 
82.5453 -132.211 471.09 233 234 228 0.0489093 -0.244546 -0.968403 
84.362 -132.606 472.747 233 234 228 0.582448 0.0571028 -0.81086 
86.1152 -132.826 473.674 233 234 228 0.181852 0.246035 -0.952049 
87.7075 -132.52 473.377 233 234 228 -0.486039 0.0791226 -0.870348 
89.2041 -132.093 472.065 233 234 228 -0.336163 0.385965 -0.859084 
90.8673 -132.022 472.32 233 234 228 0.181199 0.047684 -0.98229 
92.5653 -132.105 472.683 233 234 228 0.188436 -0.277111 -0.942179 
94.2615 -132.149 473.067 233 234 228 -0.50951 0.431124 -0.744669 
95.615 -131.358 471.017 233 234 228 -0.717253 0.0569249 -0.694483 
97.1426 -131.037 470.228 233 234 228 -0.0491355 0.972882 0.226023 
98.9554 -131.296 471.53 233 234 228 -0.087239 0.979015 0.184171 
100.359 -130.709 469.957 233 234 228 -0.424038 0.0761094 -0.90244 
102.022 -130.715 470.109 233 234 228 0.308677 0.217217 -0.926032 
103.798 -130.889 471.052 233 234 228 -0.407445 -0.174619 -0.89638 
105.041 -130.026 468.596 233 234 228 -0.687732 -0.350354 -0.635828 
106.484 -129.612 467.425 233 234 228 -0.350759 -0.192352 -0.916498 
108.085 -129.448 467.343 233 234 228 -0.0292228 0.263005 -0.964352 
109.726 -129.435 467.392 233 234 228 0.0648065 -0.120355 -0.990613 
111.369 -129.335 467.569 233 234 228 -0.592423 -0.0813129 -0.801513 
112.585 -128.57 465.236 233 234 228 0.826876 0.562276 -0.011025 
132.534 -158.167 579.747 233 234 228 -0.0289494 0.974629 0.221945 
115.924 -128.575 465.824 233 234 228 -0.992219 -0.0446946 0.116206 
117.26 -127.994 464.375 233 234 228 -0.521882 -0.104376 -0.846608 
118.795 -127.81 463.947 233 234 228 -0.187367 0.108476 -0.976282 
120.383 -127.717 463.806 233 234 228 0.062733 -0.0806567 -0.994766 
122.059 -127.714 464.159 233 234 228 -0.790109 0.0333849 -0.612056 
122.939 -126.528 460.559 233 234 228 -0.906761 0.247299 -0.341507 
124.293 -126.125 459.343 233 234 228 -0.482019 0.176349 -0.85823 
125.82 -125.936 459.032 233 234 228 -0.052211 -0.365477 -0.929355 
127.417 -125.866 459.052 233 234 228 -0.204372 -0.204372 -0.957321 
128.841 -125.549 458.282 233 234 228 -0.809165 -0.0110845 -0.587476 
129.847 -124.682 455.63 233 234 228 -0.712246 0.349648 -0.608647 
131.461 -124.636 455.794 233 234 228 0.123705 0.393606 -0.910918 
133.114 -124.653 456.113 233 234 228 -0.53959 -0.155882 -0.827371 
134.168 -123.881 453.849 233 234 228 -0.673372 -0.241398 -0.698783 
135.622 -123.653 453.346 233 234 228 -0.0768767 -0.450278 -0.889573 
137.222 -123.632 453.458 233 234 228 -0.397988 0.0752949 -0.914296 
138.475 -123.113 452.182 233 234 228 -0.90244 -0.0761094 -0.424038 
139.241 -122.123 448.898 233 234 228 -0.846578 -0.233116 -0.478501 
140.523 -121.713 447.818 233 234 228 -0.833663 -0.0108268 -0.552167 
141.483 -120.997 445.471 233 234 228 -0.750325 0.381744 -0.539707 
142.925 -120.798 445.095 233 234 228 -0.852989 0.102359 -0.511793 
143.688 -119.867 442.109 233 234 228 -0.764559 -0.323966 -0.557221 
145.023 -119.555 441.396 233 234 228 -0.374295 -0.529175 -0.761496 
146.276 -119.205 440.377 233 234 228 -0.523622 0.344824 -0.779048 
147.668 -118.972 439.919 233 234 228 -0.746884 0.130408 -0.652041 
148.634 -118.299 437.921 233 234 228 -0.838352 -0.287792 -0.46297 
149.551 -117.639 435.781 233 234 228 -0.678434 -0.385776 -0.625223 
150.817 -117.305 434.957 233 234 228 -0.830723 0.204671 -0.517697 
151.671 -116.573 432.711 233 234 228 -0.895272 -0.0539321 -0.442243 
152.685 -116.079 431.057 233 234 228 -0.93341 0.19118 -0.303639 
153.404 -115.215 428.467 233 234 228 -0.764268 -0.181969 -0.618693 
154.778 -115.073 428.137 233 234 228 -0.722148 -0.159117 -0.673189 
155.568 -114.327 425.883 233 234 228 -0.896107 0.442655 -0.0323894 
155.904 -113.231 422.175 233 234 228 -0.938039 -0.275894 -0.209679 
156.477 -112.347 419.34 233 234 228 -0.952492 -0.00981951 0.304405 
-187.119 -155.198 471.494 232 233 139 -0.424038 -0.0761094 -0.90244 
-184.654 -154.679 470.52 235 237 161 0.307693 -0.116711 -0.9443 
-183.716 -155.172 472.614 235 237 163 -0.168234 -0.108858 -0.979718 
-180.308 -153.957 469.694 236 238 144 -0.520714 -0.033237 -0.853084 
-178.048 -153.499 469.078 235 237 170 -0.39013 0.248264 -0.886659 
-175.553 -152.893 467.953 235 237 159 -0.302824 -0.0730953 -0.950239 
-173.415 -152.617 467.545 235 237 161 -0.221945 0.0289494 -0.974629 
-171.21 -152.154 466.984 236 238 175 -0.827677 -0.0793663 -0.555564 
-159.25 -141.908 444.69 234 235 175 -0.0280056 -0.196039 -0.980196 
-167.267 -151.685 466.809 234 235 177 0.9443 0.116711 0.307693 
-165.312 -151.412 466.741 235 236 176 -0.23015 0.0700455 -0.970631 
-162.972 -150.988 465.816 236 237 177 -0.469182 0.317015 -0.824239 
-160.476 -150.245 464.519 229 231 166 -0.334351 0.242116 -0.910818 
-158.553 -150.033 464.471 233 234 176 0.233831 -0.111832 -0.965824 
-157.032 -150.138 465.325 234 236 187 0.0577527 -0.00825039 -0.998297 
-154.849 -149.677 464.673 235 235 200 -0.197031 -0.176291 -0.964417 
-152.8 -149.338 464.306 232 234 210 -0.05872 -0.00838856 -0.998239 
-150.978 -149.191 464.455 234 235 204 -0.206583 0.250074 -0.945932 
-148.725 -148.695 463.581 235 236 196 0.0555042 -0.876966 -0.477336 
-146.911 -148.513 463.724 231 231 194 -0.12019 0.0832086 -0.989258 
-144.808 -148.141 463.166 231 232 190 -0.379662 0.172573 -0.908887 
-142.467 -147.526 462.007 235 236 194 -0.12069 0.340126 -0.932603 
-140.96 -147.627 462.865 233 236 209 0.217217 0.308677 -0.926032 
-139.082 -147.483 462.815 236 234 209 -0.367514 0.272672 -0.889148 
-136.629 -146.738 461.302 234 235 204 -0.118187 -0.063639 -0.99095 
-135.196 -146.887 462.338 236 236 212 0.564938 0.103764 -0.818583 
-133.703 -147.003 463.236 234 235 218 0.414237 0.201201 -0.887652 
-132.064 -146.974 463.761 236 235 214 -0.105096 -0.143313 -0.984081 
-129.841 -146.412 462.757 233 235 224 -0.132993 0.194374 -0.97187 
-128.224 -146.438 463.331 235 234 215 -0.111832 0.233831 -0.965824 
-126.048 -145.952 462.409 233 235 224 -0.221224 0.179086 -0.958639 
-124.269 -145.76 462.525 234 235 220 0.101734 0.101734 -0.989596 
-122.549 -145.68 462.802 233 235 224 0.0690032 -0.20701 -0.975902 
-120.71 -145.474 462.746 233 235 226 0.277111 -0.188436 -0.942179 
-119.271 -145.648 463.801 233 235 222 -0.919773 -0.0317163 -0.391168 
-99.4022 -128.216 412.404 234 234 224 -0.922937 -0.0311102 -0.383693 
-97.3936 -127.643 411.214 233 235 226 0.950239 0.0730953 0.302824 
-113.315 -144.567 462.281 235 236 223 0.948586 0.0938162 0.302297 
-111.763 -144.583 463 231 233 220 0.132897 0.712812 -0.688649 
-109.982 -144.45 463.054 233 235 226 0.318489 0.164736 -0.933502 
-108.535 -144.631 464.104 232 234 225 0.292944 0.31638 -0.902268 
-106.747 -144.401 464.118 233 235 226 -0.281103 -0.00969322 -0.959629 
-104.585 -143.844 462.97 233 234 228 -0.145727 -0.126297 -0.98123 
-102.968 -143.857 463.499 233 234 228 -0.953359 0.139255 -0.267797 
-54.3526 -92.5794 313.484 233 234 228 -0.892269 0.0104973 -0.451383 
-94.7641 -136.426 447.657 234 234 224 0.936671 0.143256 0.31957 
-87.6953 -128.089 427.466 234 234 226 0.996615 0.0259986 0.0779959 
-95.9364 -143.247 463.759 233 234 228 0.97141 0.11016 0.210305 
-94.1807 -143.076 463.806 233 234 228 0.192352 0.350759 -0.916498 
-92.6195 -143.105 464.5 233 234 228 0.236853 -0.810287 -0.536036 
-91.1117 -143.218 465.391 233 234 228 0.290349 0.568075 -0.770057 
-89.4136 -143.165 465.641 233 234 228 -0.0326183 0.511021 -0.858949 
-87.6053 -142.896 465.478 233 234 228 0.00987681 0.286428 -0.958051 
-85.929 -142.846 465.789 233 234 228 0.184171 0.087239 -0.979015 
-84.2653 -142.746 466.128 233 234 228 -0.0300075 -0.310078 -0.950238 
-82.3548 -142.421 465.57 233 234 228 0.00974463 0.263105 -0.964718 
-80.7854 -142.472 466.257 233 234 228 0.244734 0.029368 -0.969145 
-79.0801 -142.33 466.428 233 234 228 0.0752949 -0.914296 -0.397988 
-77.1171 -141.908 465.608 233 234 228 -0.0255571 -0.0766714 -0.996729 
-75.5585 -141.967 466.333 233 234 228 0.514635 0.263594 -0.815885 
-74.0989 -142.145 467.462 233 234 228 0.158582 -0.222014 -0.962061 
-72.1973 -141.788 466.832 233 234 228 -0.184171 0.087239 -0.979015 
-70.4472 -141.608 466.791 233 234 228 -0.0607 0.0433571 -0.997214 
-68.6718 -141.415 466.637 233 234 228 -0.166924 0.344977 -0.923649 
-66.8678 -141.149 466.336 233 234 228 0.351806 0.303281 -0.885581 
-65.4993 -141.441 467.888 233 234 228 0.407225 0.696224 -0.591134 
-63.839 -141.385 468.21 233 234 228 0.142223 -0.339147 -0.92992 
-62.137 -141.3 468.356 233 234 228 -0.286262 0.24046 -0.927488 
-60.158 -140.735 467.203 233 234 228 0.938039 0.209679 -0.275894 
-60.7555 -139.686 474.384 233 234 228 0.42063 0.369644 -0.828513 
-57.0457 -140.886 468.759 233 234 228 -0.714784 -0.10546 -0.691348 
-55.3427 -140.806 468.876 233 234 228 -0.059668 -0.04262 -0.997308 
-53.5488 -140.55 468.526 233 234 228 0.391168 -0.0317163 -0.919773 
-52.1748 -140.935 470.249 233 234 228 0.118266 -0.935376 -0.333295 
-50.3741 -140.585 469.82 233 234 228 -0.262432 -0.136465 -0.955252 
-48.5191 -140.246 469.123 233 234 228 -0.0792437 -0.061634 -0.994948 
-46.8873 -140.192 469.54 233 234 228 0.395394 0.395394 -0.829052 
-45.3679 -140.406 470.606 233 234 228 -0.0309773 -0.34075 -0.939644 
-43.4142 -139.793 469.257 233 234 228 -0.184449 0.0679548 -0.98049 
-41.8275 -139.9 469.959 233 234 228 0.611887 0.131976 -0.779857 
-40.3919 -140.221 471.525 233 234 228 -0.0669038 0.162481 -0.984441 
-38.3856 -139.517 469.77 233 234 228 -0.329097 -0.377852 -0.865403 
-36.6749 -139.426 469.754 233 234 228 0.072096 0.278085 -0.957847 
-35.0394 -139.269 470.088 233 234 228 0.372791 0.300638 -0.877863 
-33.4871 -139.469 471.053 233 234 228 0.0735458 -0.346716 -0.935082 
-31.6657 -139.066 470.26 233 234 228 0.145755 0.392417 -0.908165 
-30.1777 -139.345 471.649 233 234 228 0.237898 -0.134464 -0.961937 
-28.3871 -139.034 471.037 233 234 228 0.00877227 0.131584 -0.991266 
-26.7969 -139.049 471.735 233 234 228 0.446803 0.148934 -0.882149 
-25.2148 -139.205 472.586 233 234 228 -0.307101 0.380805 -0.872167 
-23.2705 -138.511 470.755 233 234 228 -0.161048 0.246941 -0.955554 
-21.7602 -138.766 472.105 233 234 228 0.286316 0.0296189 -0.957677 
-20.0235 -138.526 471.756 233 234 228 -0.0544412 0.424641 -0.903723 
-18.3738 -138.447 472.048 233 234 228 0.12622 0.493406 -0.860592 
-16.7187 -138.359 472.3 233 234 228 -0.153005 -0.193807 -0.969035 
-14.9265 -137.986 471.421 233 234 228 0.074071 0.328029 -0.941759 
-13.3815 -138.218 472.648 233 234 228 -0.15343 0.483896 -0.861571 
-11.5335 -137.562 471.092 233 234 228 -0.00947495 0.217924 -0.97592 
-10.0142 -137.94 472.656 233 234 228 0.99967 0.0243822 0.0081274 
-11.4965 -142.313 495.324 233 234 228 -0.295058 0.295058 -0.90878 
-6.56277 -137.393 471.738 233 234 228 -0.96219 0.0495974 -0.267826 
-5.02421 -137.649 473.166 233 234 228 -0.989642 -0.0453964 -0.136189 
5.66595 -102.78 365.375 233 234 228 -0.0475114 0.978736 0.199548 
-1.75616 -137.698 474.216 233 234 228 0.997308 0.04262 0.059668 
-0.00636887 -137.36 473.417 233 234 228 -0.34674 -0.275001 -0.896742 
1.72423 -136.955 472.652 233 234 228 0.0317732 -0.434233 -0.90024 
3.34291 -137.107 473.444 233 234 228 0.277111 -0.188436 -0.942179 
4.99874 -137.015 473.657 233 234 228 0.056574 0.622314 -0.780721 
6.65619 -136.917 473.849 233 234 228 -0.213941 -0.132439 -0.967827 
8.39204 -136.482 472.838 233 234 228 -0.176978 -0.176978 -0.968172 
10.04 -136.422 473.132 233 234 228 0.0677 -0.2031 -0.976815 
11.7214 -136.309 473 233 234 228 -0.046227 0.138681 -0.989258 
13.3775 -136.103 473.005 233 234 228 0.49191 0.179967 -0.851843 
14.957 -136.517 474.802 233 234 228 0.471181 -0.205387 -0.857791 
16.6283 -136.444 474.876 233 234 228 -0.0509383 -0.315817 -0.947452 
18.3111 -136.22 474.548 233 234 228 -0.128349 -0.16784 -0.977423 
19.9892 -136.069 474.361 233 234 228 0.302824 -0.0730953 -0.950239 
21.6147 -136.323 475.614 233 234 228 0.217924 0.00947495 -0.97592 
23.2926 -136.001 475.113 233 234 228 0.0950639 -0.327442 -0.940077 
24.9319 -136.008 475.804 233 234 228 0.136279 0.0272558 -0.990295 
26.6095 -135.859 475.596 233 234 228 -0.205387 0.471181 -0.857791 
28.2853 -135.625 475.18 233 234 228 -0.995121 0.0259597 -0.0951855 
30.1609 -123.071 438.45 233 234 228 0.351806 0.303281 -0.885581 
31.6045 -135.795 476.458 233 234 228 0.994948 0.0792437 -0.061634 
33.2736 -135.401 475.633 233 234 228 -0.182832 0.670383 -0.719138 
34.9282 -135.356 476.078 233 234 228 0.010256 0.35896 -0.933297 
36.5972 -135.183 475.785 233 234 228 -0.123705 -0.393606 -0.910918 
38.2631 -135.006 475.476 233 234 228 0.130398 -0.190582 -0.972972 
39.9267 -135.076 476.196 233 234 228 0.126632 -0.126632 -0.983834 
41.5907 -134.902 475.89 233 234 228 -0.353007 0.0962746 -0.930654 
43.2318 -134.481 475.029 233 234 228 -0.0111727 0.636842 -0.770914 
44.9085 -134.655 476.006 233 234 228 0.103764 0.564938 -0.818583 
46.5557 -134.379 475.508 233 234 228 -0.12223 0.366689 -0.922279 
48.2256 -134.363 475.657 233 234 228 0.0700455 0.23015 -0.970631 
49.8807 -134.235 475.787 233 234 228 -0.118304 -0.0455016 -0.991934 
51.5167 -133.935 475.215 233 234 228 -0.263129 -0.115777 -0.957789 
53.1614 -133.732 474.791 233 234 228 -0.0512585 0.297299 -0.953407 
54.8252 -133.691 475.092 233 234 228 -0.00917045 0.19258 -0.981239 
56.4625 -133.466 474.831 233 234 228 -0.176978 -0.176978 -0.968172 
58.0983 -133.255 474.392 233 234 228 -0.145755 -0.392417 -0.908165 
59.7442 -133.123 474.187 233 234 228 -0.242725 0.137192 -0.960345 
61.3572 -132.81 473.638 233 234 228 -0.282556 0.115115 -0.952318 
62.9811 -132.582 473.266 233 234 228 0.0526024 -0.347176 -0.936323 
64.6612 -132.636 473.757 233 234 228 0.507334 -0.235106 -0.829058 
66.4242 -133.012 475.57 233 234 228 0.0086403 0.112324 -0.993634 
67.9521 -132.385 473.802 233 234 228 -0.777176 0.155435 -0.609784 
69.4696 -131.785 472.006 233 234 228 0.0515848 -0.938843 -0.34046 
71.1718 -131.891 472.869 233 234 228 0.288698 -0.539739 -0.790781 
72.8459 -131.892 473.247 233 234 228 -0.052211 -0.365477 -0.929355 
74.4465 -131.671 472.617 233 234 228 -0.231977 0.25407 -0.938954 
76.0689 -131.438 472.614 233 234 228 -0.0259986 0.0779959 -0.996615 
77.7093 -131.343 472.551 233 234 228 0.0100631 -0.352208 -0.935868 
79.3609 -131.294 472.577 233 234 228 -0.150362 -0.474218 -0.867472 
80.9256 -130.97 471.812 233 234 228 0.047684 -0.181199 -0.98229 
82.6554 -131.103 472.727 233 234 228 0.00933846 -0.196108 -0.980538 
84.1972 -130.727 471.811 233 234 228 -0.0104973 -0.451383 -0.892269 
85.9235 -130.87 472.556 233 234 228 0.0779959 0.0259986 -0.996615 
87.4982 -130.56 472.072 233 234 228 0.246035 0.181852 -0.952049 
89.3 -130.864 473.408 233 234 228 0.25407 0.231977 -0.938954 
90.895 -130.655 472.991 233 234 228 -0.408854 -0.0314503 -0.912058 
92.4033 -130.22 471.984 233 234 228 -0.0515848 -0.34046 -0.938843 
94.1437 -130.382 472.691 233 234 228 0.0096105 -0.240262 -0.97066 
95.6875 -130.049 472.001 233 234 228 0.989642 0.0453964 -0.136189 
111.204 -158.745 586.104 233 234 228 0.978186 0.088926 -0.187733 
103.768 -139.672 508.733 233 234 228 -0.995121 -0.0259597 0.0951855 
100.32 -129.155 470.083 233 234 228 -0.998841 -0.0247647 0.0412744 
102.005 -129.196 470.386 233 234 228 0.0754122 -0.00837914 -0.997117 
103.619 -129.021 470.322 233 234 228 -0.398459 -0.253565 -0.881439 
105.016 -128.508 468.781 233 234 228 -0.517579 -0.315597 -0.795305 
106.537 -128.2 468.142 233 234 228 -0.193807 -0.153005 -0.969035 
108.159 -128.13 468.083 233 234 228 -0.416428 -0.0533882 -0.9076 
109.558 -127.66 466.711 233 234 228 -0.459979 0.0106972 -0.887866 
111.127 -127.397 466.518 233 234 228 0.980196 0.0280056 -0.196039 
124.19 -145.861 535.508 233 234 228 0.983631 0.0281037 -0.17799 
133.801 -157.187 584.057 233 234 228 -0.358172 -0.912761 -0.196417 
115.653 -126.65 464.622 233 234 228 -0.99095 -0.063639 0.118187 
117.048 -126.201 463.479 233 234 228 -0.459768 0.0320768 -0.887459 
118.595 -126.013 463.155 233 234 228 -0.299256 -0.323197 -0.897769 
120.04 -125.719 462.276 233 234 228 -0.339443 -0.269213 -0.901279 
121.564 -125.496 461.886 233 234 228 0.144027 -0.365607 -0.919558 
123.311 -125.536 462.68 233 234 228 -0.046227 0.138681 -0.989258 
124.74 -125.237 461.778 233 234 228 -0.865403 0.329097 -0.377852 
125.648 -124.189 458.443 233 234 228 -0.761496 0.374295 -0.529175 
127.307 -124.239 458.729 233 234 228 0.275001 0.34674 -0.896742 
129.054 -124.358 459.456 233 234 228 -0.292944 -0.31638 -0.902268 
130.23 -123.681 457.587 233 234 228 -0.75452 0.436828 -0.489776 
131.568 -123.276 456.466 233 234 228 -0.694314 0.265102 -0.669066 
132.868 -122.851 455.207 233 234 228 -0.119771 -0.359312 -0.9255 
134.609 -122.918 455.951 233 234 228 -0.634973 0.298048 -0.712725 
135.546 -122.072 453.185 233 234 228 -0.701049 -0.293166 -0.650064 
137.048 -121.936 452.88 233 234 228 -0.296884 -0.344385 -0.890651 
138.408 -121.577 452.032 233 234 228 -0.0313539 -0.930167 -0.365796 
139.426 -120.86 449.798 233 234 228 -0.925166 -0.0744386 -0.372193 
140.285 -119.959 447 233 234 228 -0.772033 0.208326 -0.60047 
141.848 -119.955 447.034 233 234 228 -0.687247 0.552492 -0.47164 
142.714 -119.085 444.397 233 234 228 -0.835865 0.0557244 -0.546099 
144.082 -118.845 443.735 233 234 228 -0.473709 0.609054 -0.636123 
145.401 -118.47 442.956 233 234 228 -0.529175 0.374295 -0.761496 
146.741 -118.217 442.231 233 234 228 -0.562276 0.011025 -0.826876 
147.984 -117.861 441.174 233 234 228 -0.889777 0.123893 -0.439257 
148.746 -117.014 438.395 233 234 228 -0.969035 0.153005 -0.193807 
149.418 -116.037 435.392 233 234 228 -0.90024 0.0317732 -0.434233 
150.656 -115.697 434.46 233 234 228 -0.51338 0.460726 -0.723998 
152 -115.47 433.929 233 234 228 -0.699126 0.435305 -0.567215 
152.999 -114.927 432.212 233 234 228 -0.896107 0.0323894 -0.442655 
153.909 -114.28 430.249 233 234 228 -0.736116 0.663711 -0.132742 
154.815 -113.696 428.306 233 234 228 -0.953359 0.139255 -0.267797 
155.433 -112.76 425.483 233 234 228 -0.168179 -0.930589 -0.325146 
155.959 -111.898 422.391 233 234 228 -0.798878 0.494543 -0.342376 
157.39 -111.771 422.348 233 234 228 -0.950238 -0.0300075 0.310078 
-186.714 -153.149 470.431 235 237 134 -0.520203 0.0553408 -0.852248 
-184.743 -152.937 470.443 232 233 139 -0.200244 0.200244 -0.959064 
-182.375 -152.414 469.649 235 238 157 -0.147395 -0.419508 -0.895705 
-180.28 -152.101 469.384 234 236 160 -0.0626325 -0.0984224 -0.993172 
-178.295 -151.884 469.334 235 237 170 -0.334255 0.0303869 -0.941993 
-175.595 -151.115 467.791 234 235 137 -0.453416 0.281853 -0.84556 
-173.323 -150.696 467.107 236 238 173 -0.187243 0.297386 -0.936216 
-171.388 -150.477 467.113 232 235 179 -0.095214 -0.00865582 -0.995419 
-169.256 -150.147 466.692 233 235 184 -0.111832 0.965824 0.233831 
-167.62 -150.123 467.325 235 236 165 -0.100203 -0.0637656 -0.992922 
-165.18 -149.541 466.207 236 237 179 -0.191044 -0.110604 -0.97533 
-163.346 -149.432 466.394 233 236 207 0.0446946 0.116206 -0.992219 
-161.428 -149.167 466.388 234 236 185 -0.300638 0.372791 -0.877863 
-159.014 -148.62 465.261 233 236 180 -0.385965 0.336163 -0.859084 
-156.872 -148.197 464.719 234 238 179 -0.291594 0.0502747 -0.95522 
-154.664 -147.774 464.007 231 232 190 -0.23015 -0.0700455 -0.970631 
-152.605 -147.384 463.612 234 235 191 0.0255571 0.0766714 -0.996729 
-150.936 -147.415 464.115 236 236 183 0.084549 -0.140915 -0.986405 
-148.953 -147.094 463.873 232 233 191 -0.193807 0.153005 -0.969035 
-146.873 -146.698 463.389 235 236 196 -0.144027 0.365607 -0.919558 
-145.04 -146.561 463.48 235 235 211 0.31179 0.265599 -0.912274 
-143.581 -146.719 464.475 233 235 213 -0.0334679 0.546642 -0.836697 
-141.339 -146.188 463.554 233 234 201 -0.41553 0.339979 -0.843652 
-139.149 -145.736 462.735 234 236 212 -0.336163 0.385965 -0.859084 
-137.083 -145.368 462.199 234 234 210 0.0341904 0.717998 -0.695205 
-135.635 -145.434 463.202 234 235 218 0.373301 0.450536 -0.810965 
-133.943 -145.46 463.605 234 235 204 -0.265599 0.31179 -0.912274 
-131.58 -144.8 462.26 234 236 214 -0.101909 0.0833798 -0.991293 
-130.117 -144.939 463.236 233 235 224 0.323197 0.299256 -0.897769 
-128.368 -144.806 463.464 233 235 222 0.0637656 -0.100203 -0.992922 
-126.519 -144.62 463.422 234 235 218 -0.150362 0.474218 -0.867472 
-124.577 -144.259 463.109 236 234 220 -0.351806 0.303281 -0.885581 
-122.375 -143.763 462.075 233 235 224 -0.19476 0.378064 -0.905062 
-120.702 -143.727 462.473 233 235 224 0.209589 0.653425 -0.727398 
-119.098 -143.703 463.059 233 235 226 0.258246 0.00956467 -0.966032 
-117.385 -143.596 463.339 233 235 226 0.155971 0.755861 -0.635883 
-115.782 -143.63 463.939 234 235 220 -0.0899146 0.96908 0.229782 
-114.088 -143.504 464.265 233 235 226 0.171041 0.399095 -0.900815 
-112.408 -143.462 464.64 234 234 224 -0.217584 0.155417 -0.963588 
-110.218 -142.949 463.501 233 235 226 -0.245266 0.36206 -0.899309 
-108.539 -142.846 463.85 233 235 226 0.0096105 0.240262 -0.97066 
-106.675 -142.562 463.631 233 235 226 -0.19258 0.00917045 -0.981239 
-104.709 -142.187 463.085 233 234 228 0.241398 0.673372 -0.698783 
-103.459 -142.563 464.762 233 235 226 0.470698 0.368926 -0.801459 
-101.668 -142.432 464.76 233 235 226 -0.092538 0.956226 0.277614 
-99.8446 -142.184 464.631 233 234 228 -0.82698 0.547438 -0.128124 
-92.5675 -132.953 444.41 234 234 224 0.151666 -0.851663 -0.501665 
-96.5205 -142.097 465.407 233 234 228 0.98123 0.126297 0.145727 
-94.6695 -141.763 465.144 233 234 228 0.235975 0.608567 -0.757603 
-93.283 -142.065 466.467 233 234 228 0.179967 -0.851843 -0.49191 
-91.4972 -141.875 466.429 233 234 228 -0.122429 -0.0847587 -0.988851 
-89.5998 -141.591 465.998 233 235 226 -0.262432 -0.136465 -0.955252 
-87.6325 -141.157 465.282 233 235 226 -0.00825713 0.0412857 -0.999113 
-86.0577 -141.223 465.955 227 229 220 -0.0730953 -0.302824 -0.950239 
-84.0004 -140.672 464.866 233 234 228 0.197713 -0.156089 -0.967753 
-82.7206 -141.117 466.628 233 234 228 0.441274 0.365627 -0.819509 
-80.9134 -140.8 466.418 233 235 226 0.0808776 0.566143 -0.82033 
-79.3379 -140.914 467.112 234 236 225 -0.04262 0.059668 -0.997308 
-77.3815 -140.422 466.305 233 234 228 -0.100604 0.458308 -0.883081 
-75.7769 -140.508 466.885 233 234 228 0.059668 0.04262 -0.997308 
-73.9435 -140.197 466.528 233 234 228 0.0669038 -0.162481 -0.984441 
-72.3382 -140.211 467.083 233 234 228 0.169031 -0.371868 -0.912767 
-70.5941 -140.039 467.07 233 234 228 0.19118 0.303639 -0.93341 
-69.0314 -140.113 467.807 233 234 228 0.127229 0.520483 -0.84434 
-67.2601 -139.854 467.652 233 234 228 0.130043 0.626572 -0.768437 
-65.7173 -139.998 468.499 233 234 228 -0.161048 -0.246941 -0.955554 
-63.6268 -139.326 466.931 233 234 228 0.0861451 -0.143575 -0.985883 
-62.3121 -139.771 468.787 233 234 228 0.546642 -0.0334679 -0.836697 
-60.6057 -139.601 468.887 233 234 228 -0.132897 0.688649 -0.712812 
-58.7991 -139.357 468.538 233 234 228 0.0730953 -0.950239 -0.302824 
-57.1395 -139.301 468.852 233 234 228 -0.0597027 0.0255869 -0.997888 
-55.3156 -138.985 468.369 233 234 228 0.0936009 0.00850917 -0.995573 
-53.7566 -139.065 469.155 233 234 228 0.387167 0.387167 -0.836781 
-52.1552 -139.077 469.744 233 234 228 -0.0690032 -0.20701 -0.975902 
-50.2475 -138.623 468.787 233 234 228 -0.187733 0.088926 -0.978186 
-48.5855 -138.582 469.071 233 234 228 0.50951 0.431124 -0.744669 
-47.1784 -138.916 470.69 233 234 228 0.176978 0.176978 -0.968172 
-45.2867 -138.418 469.718 233 234 228 -0.0759301 -0.379651 -0.922009 
-43.6536 -138.457 470.176 233 234 228 0.0086403 0.112324 -0.993634 
-41.8724 -138.128 469.75 233 234 228 -0.0326957 0.468639 -0.882785 
-40.2413 -138.155 470.207 233 234 228 -0.0943923 -0.283177 -0.954411 
-38.3788 -137.668 469.254 233 234 228 -0.0575855 0.63344 -0.771646 
-36.829 -137.843 470.188 233 234 228 0.547739 0.52102 -0.654615 
-35.3253 -138.074 471.418 233 234 228 -0.16586 0.298548 -0.939872 
-33.35 -137.379 469.686 233 234 228 0.00981951 0.304405 -0.952492 
-31.9336 -137.825 471.525 233 234 228 0.284428 0.482291 -0.828551 
-30.1279 -137.396 470.786 233 234 228 -0.0994187 0.386628 -0.916861 
-28.4987 -137.451 471.278 233 234 228 0.0326183 0.511021 -0.858949 
-26.7742 -137.162 471.027 233 234 228 -0.0484115 0.203328 -0.977913 
-25.0975 -137.112 471.18 233 234 228 0.237898 -0.134464 -0.961937 
-23.4879 -137.207 471.823 233 234 228 0.156513 0.686249 -0.710328 
-21.8237 -137.013 471.963 233 234 228 0.440376 -0.101625 -0.892043 
-20.3124 -137.38 473.433 233 234 228 0.501665 0.151666 -0.851663 
-18.6628 -137.298 473.766 233 234 228 -0.392417 0.145755 -0.908165 
-16.7593 -136.667 472.04 233 234 228 -0.177866 -0.0468067 -0.982941 
-15.1959 -136.883 473.128 233 234 228 0.128124 0.547438 -0.82698 
-13.4598 -136.549 472.653 233 234 228 -0.0754122 0.00837914 -0.997117 
-11.7993 -136.505 472.901 233 234 228 -0.121216 0.385688 -0.914632 
-10.0657 -136.178 472.391 233 234 228 0.155417 0.217584 -0.963588 
