ply
format ascii 1.0
comment Author: CloudCompare (TELECOM PARISTECH/EDF R&D)
obj_info Generated by CloudCompare!
element vertex 714
property float x
property float y
property float z
property uchar red
property uchar green
property uchar blue
property float nx
property float ny
property float nz
end_header
-153.704 -102.491 470.799 234 236 212 0.0697113 -0.248969 0.965999 
-150.75 -101.41 471.019 233 235 213 -0.0284146 -0.217846 0.97557 
-150.054 -103.372 470.593 233 234 219 -0.0288208 -0.240174 0.970302 
-148.088 -102.272 470.891 224 227 184 0.00930283 -0.213965 0.976797 
-146.161 -102.321 470.814 233 236 218 0.0677 -0.2031 0.976815 
-143.324 -100.185 471.002 234 235 222 0.0677 -0.2031 0.976815 
-141.44 -99.4255 471.12 233 235 222 -0.0284146 -0.217846 0.97557 
-139.589 -101.082 470.954 234 236 216 -0.155417 -0.217584 0.963588 
-138.289 -101.105 471.174 234 235 220 -0.155417 -0.217584 0.963588 
-136.417 -100.386 471.629 233 234 219 -0.135102 -0.218241 0.966498 
-134.408 -100.251 471.836 233 235 224 -0.00943438 -0.23586 0.971741 
-131.412 -98.0601 472.269 234 234 224 0.00943438 -0.23586 0.971741 
-130.729 -100.55 471.644 233 235 224 0.00956467 -0.258246 0.966032 
-128.669 -99.4974 471.978 234 235 220 -0.0498531 -0.249266 0.967151 
-127.19 -100.817 471.662 234 234 224 -0.0502747 -0.291594 0.95522 
-124.638 -99.2464 472.239 233 235 226 -0.029368 -0.244734 0.969145 
-123.105 -99.2925 472.292 233 235 226 -0.0498531 -0.249266 0.967151 
-121.674 -99.8437 472.252 233 235 226 -0.0498531 -0.249266 0.967151 
-120.52 -101.186 471.893 233 235 226 -0.0296189 -0.286316 0.957677 
-118.124 -100.164 472.33 233 235 226 -0.0957068 -0.308389 0.946434 
-116.309 -99.2763 472.836 233 234 228 -0.0938162 -0.302297 0.948586 
-114.427 -100.164 472.768 233 235 224 -0.092538 -0.277614 0.956226 
-112.877 -99.7316 472.956 233 235 226 -0.0292228 -0.263005 0.964352 
-110.406 -97.2971 473.606 233 234 228 -0.0284146 -0.217846 0.97557 
-108.489 -96.7016 473.86 233 234 228 -0.0885808 -0.206689 0.974389 
-106.4 -95.2946 474.353 233 235 226 -0.0687101 -0.225762 0.971756 
-104.182 -97.9436 473.868 233 234 228 -0.0289494 -0.221945 0.974629 
-101.541 -97.5984 474.025 233 234 228 -0.0912355 -0.253432 0.963041 
-100.191 -97.8942 474.15 233 234 228 -0.157807 -0.241971 0.957364 
-96.3573 -97.6562 474.56 233 234 228 0.0700455 -0.23015 0.970631 
-94.7249 -98.2791 474.233 233 235 226 0.11016 -0.210305 0.97141 
-92.7787 -98.4964 473.966 233 235 226 0.124523 -0.105366 0.986606 
-90.7453 -97.984 473.758 233 235 226 0.177866 0.0468067 0.982941 
-89.3784 -98.4017 473.495 233 234 228 0.286262 0.24046 0.927488 
-88.057 -98.8497 473.21 233 234 228 0.233233 0.233233 0.944037 
-86.3594 -100.138 473.496 233 234 228 0.265599 0.31179 0.912274 
-83.4617 -100.177 473 233 234 228 -0.242725 0.137192 0.960345 
-81.2214 -99.8528 473.381 234 235 229 -0.00917045 0.19258 0.981239 
-79.5091 -98.7744 473.455 233 234 228 -0.187367 0.108476 0.976282 
-26.7149 -62.247 366.95 233 234 228 0.153005 -0.193807 0.969035 
46.4812 -55.2834 359.377 233 234 228 -0.908429 -0.0320622 0.416808 
70.2246 -84.9337 474.776 233 234 228 0.0426572 -0.0426572 0.998179 
71.4197 -86.6925 474.559 233 234 228 0.159479 -0.0656677 0.985015 
73.6321 -84.4797 474.253 233 234 228 0.206689 -0.0885808 0.974389 
76.4231 -86.2595 473.526 233 234 228 0.210305 -0.11016 0.97141 
77.6939 -85.2399 473.342 233 234 228 0.234316 -0.0916889 0.967827 
79.363 -84.849 472.964 233 234 228 0.233831 -0.111832 0.965824 
81.3371 -84.6462 472.566 233 234 228 0.145727 -0.126297 0.98123 
83.2005 -85.0093 472.334 233 234 228 0.0276795 -0.15685 0.987234 
84.3434 -83.4464 472.559 233 234 228 -0.0446946 -0.116206 0.992219 
85.8185 -83.9977 472.623 233 234 228 -0.145727 -0.126297 0.98123 
87.5131 -83.8848 472.947 233 234 228 -0.187367 -0.108476 0.976282 
89.3351 -84.5964 473.217 233 234 228 -0.165345 -0.0875356 0.982343 
91.0632 -85.8511 473.316 233 234 228 0.0658534 -0.141114 0.987801 
94.3025 -83.4549 473.127 233 234 228 0.213941 -0.132439 0.967827 
96.3279 -84.6845 472.492 233 234 228 0.237898 -0.134464 0.961937 
97.7679 -85.0878 472.051 233 234 228 0.293426 -0.141279 0.945485 
99.1839 -83.3618 471.816 233 234 228 0.297299 -0.0512585 0.953407 
100.937 -83.7424 471.155 233 234 228 0.391168 -0.0317163 0.919773 
102.547 -85.4504 470.31 233 234 228 0.392417 -0.145755 0.908165 
103.797 -83.0394 469.838 233 234 228 0.365796 -0.0313539 0.930167 
105.354 -81.8999 469.367 233 234 228 0.286316 -0.0296189 0.957677 
107.385 -83.3579 468.73 233 234 228 0.278085 -0.072096 0.957847 
110.514 -83.3865 467.802 233 234 228 0.302297 -0.0938162 0.948586 
111.464 -81.56 467.625 233 234 228 0.296925 -0.0716715 0.952207 
112.796 -80.779 467.308 233 234 228 0.25385 -0.0710779 0.964629 
114.232 -81.9927 466.867 233 234 228 0.258475 -0.0930509 0.961526 
115.634 -79.3782 466.612 233 234 228 0.397988 -0.0752949 0.914296 
117.345 -80.5618 465.634 233 234 228 0.486039 -0.0791226 0.870348 
118.952 -80.2184 464.738 233 234 228 0.486039 -0.0791226 0.870348 
120.622 -80.3028 463.869 233 234 228 0.475748 -0.12764 0.870271 
122.75 -82.1685 462.306 233 234 228 0.503311 -0.128754 0.854459 
123.721 -79.504 462.469 233 234 228 0.371868 -0.169031 0.912767 
125.314 -80.9359 461.582 233 234 228 0.379662 -0.172573 0.908887 
127.339 -81.4173 460.511 233 234 228 0.483896 -0.15343 0.861571 
128.394 -80.6311 459.985 233 234 228 0.556262 -0.15386 0.81664 
129.256 -77.4581 459.794 233 234 228 0.527065 -0.0107564 0.849757 
131.225 -79.3656 458.385 233 234 228 0.581539 -0.0798191 0.809593 
132.432 -79.5863 457.45 233 234 228 0.592423 -0.0813129 0.801513 
134.01 -81.3778 456.066 233 234 228 0.607193 -0.0801953 0.790497 
135.518 -79.868 455.09 233 234 228 0.548929 -0.105114 0.829233 
137.161 -78.9701 454.257 233 234 228 0.501665 -0.151666 0.851663 
139.7 -79.2715 452.255 233 234 228 0.705922 -0.0578625 0.705922 
142.396 -76.8034 448.969 233 234 228 0.816618 0.0108882 0.577076 
144.456 -79.2643 446.126 233 234 228 0.622314 0.056574 0.780721 
145.538 -75.0548 446.324 233 234 228 0.548169 -0.182723 0.816163 
147.093 -76.4933 445.213 233 234 228 0.521882 -0.104376 0.846608 
148.832 -78.3274 443.252 233 234 228 0.791745 -0.0573728 0.608152 
150.389 -74.1579 441.618 233 234 228 0.652041 -0.130408 0.746884 
151.198 -71.6748 441.407 233 234 228 0.600582 -0.129537 0.789 
153.424 -74.9294 438.875 233 234 228 0.770595 -0.106698 0.628331 
154.405 -76.0863 437.254 233 234 228 0.846608 -0.104376 0.521882 
155.186 -74.252 436.394 233 234 228 0.827371 -0.155882 0.53959 
156.665 -74.7911 433.947 233 234 228 0.824061 -0.179144 0.537431 
157.541 -74.9965 432.489 233 234 228 0.854459 -0.128754 0.503311 
158.273 -72.3794 431.537 233 234 228 0.892043 -0.101625 0.440376 
158.682 -68.4737 431.487 233 234 228 0.838085 -0.0803643 0.539589 
-191.413 -104.589 474.661 234 237 156 0.383858 -0.0103745 0.923334 
-190.779 -103.712 474.49 234 236 158 0.267826 -0.0495974 0.96219 
-189.425 -104.067 474.113 234 235 150 0.248969 -0.0697113 0.965999 
-185.979 -103.693 473.387 235 237 161 0.190582 -0.130398 0.972972 
-183.285 -102.843 473.018 225 227 151 0.148152 -0.148152 0.977805 
-181.817 -103.722 472.698 235 236 165 0.10711 -0.146058 0.98346 
-179.894 -103.058 472.634 233 235 168 0.084549 -0.140915 0.986405 
-177.693 -101.99 472.576 236 236 183 0.103411 -0.122213 0.987102 
-175.423 -101.183 472.432 234 236 173 0.103411 -0.122213 0.987102 
-172.939 -101.287 472.094 235 237 172 0.122213 -0.103411 0.987102 
-171.45 -100.609 471.993 235 237 172 0.00865582 -0.095214 0.995419 
-170.249 -99.7915 472.156 233 234 203 -0.0453964 -0.136189 0.989642 
-167.129 -99.8352 472.24 236 236 183 0.0276795 -0.15685 0.987234 
-165.923 -100.171 472.092 232 233 189 0.0875356 -0.165345 0.982343 
-162.73 -99.3803 471.978 234 237 190 0.0658534 -0.141114 0.987801 
-157.485 -99.4421 471.732 234 235 202 0.046227 -0.138681 0.989258 
-154.505 -98.6515 471.686 232 234 210 0.0469551 -0.159647 0.986057 
-153.487 -100.418 471.299 234 236 189 0.0482131 -0.22178 0.973904 
-151.793 -98.936 471.516 235 236 203 0.00917045 -0.19258 0.981239 
-150.065 -99.4378 471.431 235 234 213 -0.00917045 -0.19258 0.981239 
-147.378 -99.7084 471.375 235 235 211 0.0281037 -0.17799 0.983631 
-145.249 -99.1882 471.341 231 231 194 0.0679548 -0.184449 0.98049 
-141.454 -96.6826 471.69 234 235 222 -0.0484115 -0.203328 0.977913 
-139.894 -98.7667 471.408 234 235 218 -0.132439 -0.213941 0.967827 
-138.139 -98.3867 471.742 233 235 226 -0.153005 -0.193807 0.969035 
-136.478 -98.3633 472.01 224 226 213 -0.130873 -0.171142 0.976516 
-135.279 -98.967 472.062 233 236 220 -0.088926 -0.187733 0.978186 
-132.498 -97.2837 472.459 234 235 218 -0.00930283 -0.213965 0.976797 
-130.25 -97.9607 472.297 236 235 214 -0.0096105 -0.240262 0.97066 
-128.822 -97.3928 472.474 234 235 231 -0.0289494 -0.221945 0.974629 
-127.209 -98.5773 472.286 233 235 224 -0.0491355 -0.226023 0.972882 
-125.656 -98.1816 472.493 233 235 222 -0.0489093 -0.244546 0.968403 
-123.427 -96.8255 472.863 234 235 218 -0.0482131 -0.22178 0.973904 
-121.746 -96.6154 473.011 233 235 226 -0.0885808 -0.206689 0.974389 
-120.025 -97.6788 472.932 233 235 224 -0.0912355 -0.253432 0.963041 
-118.076 -97.1397 473.279 234 235 222 -0.113487 -0.257924 0.959477 
-116.374 -96.5706 473.641 234 234 224 -0.0912355 -0.253432 0.963041 
-114.922 -98.1185 473.311 234 236 227 -0.0706999 -0.272699 0.959498 
-112.939 -97.6749 473.499 234 235 220 -0.0096105 -0.240262 0.97066 
-111.35 -97.9958 473.434 234 234 224 -0.0096105 -0.240262 0.97066 
-109.537 -97.6421 473.571 234 234 224 -0.0690032 -0.20701 0.975902 
-107.596 -98.7614 473.513 228 230 206 -0.0690032 -0.20701 0.975902 
-103.579 -94.9073 474.626 232 232 208 -0.029368 -0.244734 0.969145 
-101.299 -95.4689 474.605 234 234 224 -0.113487 -0.257924 0.959477 
-99.9622 -94.0488 475.155 233 234 228 -0.114071 -0.238512 0.964417 
-98.407 -96.2564 474.844 233 234 228 -0.114071 -0.238512 0.964417 
-97.3174 -96.784 474.832 233 234 228 -0.0288208 -0.240174 0.970302 
-94.0447 -95.7167 474.566 233 234 228 0.237898 -0.134464 0.961937 
-92.402 -94.3451 474.196 233 234 228 0.283177 -0.0943923 0.954411 
-89.8007 -98.9516 473.97 233 234 228 0.31179 0.265599 0.912274 
-27.6252 -65.3106 366.776 233 218 89 0.177866 0.0468067 0.982941 
43.8738 -60.8335 357.117 233 234 228 -0.0968534 -0.0264146 0.994948 
44.919 -60.2461 357.505 233 234 228 -0.695931 -0.0110465 0.718024 
68.0506 -85.1568 474.793 233 235 226 0.0243757 -0.0243757 0.999406 
71.882 -83.8427 474.684 233 234 228 0.159647 -0.0469551 0.986057 
72.601 -82.4201 474.606 233 234 228 0.17799 -0.0281037 0.983631 
75.8415 -83.6896 473.871 233 234 228 0.2031 -0.0677 0.976815 
79.7767 -82.9011 473.028 233 234 228 0.199692 -0.0285275 0.979443 
81.0451 -81.9065 472.799 233 234 228 0.13387 -0.026774 0.990637 
82.8628 -82.4194 472.647 233 234 228 0.0255571 -0.0766714 0.996729 
84.4193 -81.6541 472.728 233 234 228 -0.061634 -0.0792437 0.994948 
85.4239 -82.3117 472.751 233 234 228 -0.101734 -0.101734 0.989596 
86.8692 -81.8967 473.004 233 234 228 -0.162244 -0.0858937 0.983005 
90.8279 -84.8894 473.418 233 234 228 -0.0433051 -0.0779491 0.996016 
92.8628 -83.6412 473.392 233 234 228 0.126632 -0.126632 0.983834 
93.9928 -81.8311 473.392 233 234 228 0.226023 -0.0491355 0.972882 
95.2086 -81.7015 473.039 233 234 228 0.263105 -0.00974463 0.964718 
97.4117 -83.2663 472.363 233 234 228 0.273034 -0.0505618 0.960675 
99.322 -81.1948 471.805 233 234 228 0.334393 0.0101331 0.942379 
101.082 -80.9637 471.057 233 234 228 0.383858 0.0103745 0.923334 
99.3526 -57.5673 472.29 233 234 228 0.405177 -0.0985566 0.908911 
103.209 -77.5799 470.165 233 234 228 0.334255 -0.0303869 0.941993 
105.351 -80.3148 469.396 233 234 228 0.263005 -0.0292228 0.964352 
106.909 -80.9023 469 233 234 228 0.249266 -0.0498531 0.967151 
108.702 -81.0212 468.526 233 234 228 0.272699 -0.0706999 0.959498 
110.492 -81.8423 467.934 233 234 228 0.296925 -0.0716715 0.952207 
111.383 -79.457 467.787 233 234 228 0.278085 -0.072096 0.957847 
112.573 -79.1239 467.494 233 234 228 0.234316 -0.0916889 0.967827 
113.997 -79.623 467.132 233 234 228 0.253432 -0.0912355 0.963041 
115.467 -77.4823 466.823 233 234 228 0.391168 -0.0317163 0.919773 
117.389 -78.5551 465.761 233 234 228 0.494207 -0.0549119 0.867608 
119.98 -79.724 464.278 233 234 228 0.440376 -0.101625 0.892043 
120.584 -79.2014 464.028 233 234 228 0.467512 -0.102625 0.87801 
121.879 -79.187 463.321 233 234 228 0.448217 -0.12642 0.884941 
123.762 -77.3039 462.784 233 234 228 0.386628 -0.0994187 0.916861 
124.827 -78.9382 462.122 233 234 228 0.41236 -0.122594 0.902735 
126.323 -75.8396 461.451 233 234 228 0.477336 0.0555042 0.876966 
127.947 -79.203 460.508 233 234 228 0.529361 -0.078841 0.844725 
129.816 -79.3841 459.293 233 234 228 0.503311 -0.128754 0.854459 
130.775 -77.2702 458.796 233 234 228 0.562276 -0.011025 0.826876 
132.182 -76.8864 457.815 233 234 228 0.571808 -0.0560596 0.81847 
133.137 -76.3004 457.223 233 234 228 0.566143 -0.0808776 0.82033 
134.705 -76.59 456.065 233 234 228 0.548929 -0.105114 0.829233 
136.821 -76.2625 454.889 233 234 228 0.503311 -0.128754 0.854459 
138.175 -78.3211 453.729 233 234 228 0.602255 -0.10628 0.791198 
139.736 -76.8152 452.43 233 234 228 0.728677 -0.0578315 0.682412 
142.926 -75.8285 448.136 233 234 228 0.799788 -0.10432 0.591148 
144.286 -75.4429 446.983 233 234 228 0.536036 -0.236853 0.810287 
146.063 -76.8206 445.673 233 234 228 0.433557 -0.199202 0.878833 
147.501 -77.4361 444.793 233 234 228 0.583209 -0.154729 0.79745 
148.211 -76.6257 444.108 233 234 228 0.770914 0.0111727 0.636842 
150.331 -71.3266 442.108 233 234 228 0.642364 -0.105114 0.759157 
152.222 -73.3688 440.372 233 234 228 0.638091 -0.132434 0.758486 
153.056 -72.0816 439.773 233 234 228 0.726448 -0.107181 0.678812 
154.205 -72.465 438.272 233 234 228 0.789 -0.129537 0.600582 
155.569 -73.5184 436.04 233 234 228 0.834717 -0.152835 0.529046 
156.815 -73.895 433.942 233 234 228 0.84434 -0.127229 0.520483 
157.75 -73.7952 432.32 233 234 228 0.883081 -0.100604 0.458308 
158.119 -69.9244 432.366 233 234 228 0.889573 -0.0768767 0.450278 
158.427 -67.6208 431.935 233 234 228 0.882785 -0.0326957 0.468639 
-191.262 -100.909 474.72 236 234 155 0.268037 -0.0297819 0.962948 
-190.089 -101.386 474.416 230 233 132 0.203328 -0.0484115 0.977913 
-184.635 -101.016 473.51 236 237 152 0.148559 -0.128751 0.980486 
-183.018 -100.487 473.332 235 236 167 0.148152 -0.148152 0.977805 
-181.588 -101.445 473.015 234 237 167 0.105096 -0.143313 0.984081 
-179.588 -100.375 472.942 236 237 166 0.103411 -0.122213 0.987102 
-177.308 -99.3388 472.827 233 236 166 0.103631 -0.103631 0.989202 
-175.686 -99.26 472.68 235 237 170 0.103411 -0.122213 0.987102 
-171.32 -98.7797 472.235 234 235 191 0.00906435 -0.154094 0.988015 
-169.081 -98.3688 472.419 235 237 190 -0.0453964 -0.136189 0.989642 
-167.018 -98.1341 472.492 234 237 165 0.0453964 -0.136189 0.989642 
-167.687 -102.278 471.858 234 236 162 0.0280056 -0.196039 0.980196 
-162.748 -97.7906 472.19 230 232 192 0.0648065 -0.120355 0.990613 
-161.031 -98.7016 471.967 230 233 190 0.046227 -0.138681 0.989258 
-158.802 -99.6797 471.751 234 235 193 0.0461011 -0.156744 0.986563 
-157.506 -97.3893 471.983 234 237 194 0.0268339 -0.11628 0.992854 
-156.259 -99.1996 471.685 231 234 191 0.0656677 -0.159479 0.985015 
-153.271 -98.4338 471.685 234 235 202 0.0469551 -0.159647 0.986057 
-151.284 -96.3674 471.943 235 235 211 -0.00903766 -0.171716 0.985105 
-150.004 -97.2579 471.816 232 232 206 -0.00903766 -0.171716 0.985105 
-148.882 -98.5335 471.61 234 233 205 0.00903766 -0.171716 0.985105 
-146.359 -96.9337 471.817 234 236 225 0.0468067 -0.177866 0.982941 
-143.811 -96.9653 471.641 233 234 217 0.0468067 -0.177866 0.982941 
-142.489 -97.6284 471.474 234 235 202 0.00917045 -0.19258 0.981239 
-140.481 -97.0809 471.695 235 235 211 -0.11016 -0.210305 0.97141 
-137.602 -95.055 472.42 234 236 227 -0.108476 -0.187367 0.976282 
-136.68 -96.3782 472.302 232 234 210 -0.128349 -0.16784 0.977423 
-135.054 -95.904 472.59 234 234 206 -0.0875356 -0.165345 0.982343 
-133.845 -97.9519 472.322 234 235 202 -0.0280056 -0.196039 0.980196 
-130.735 -96.6308 472.593 234 234 208 -0.00947495 -0.217924 0.97592 
-128.595 -94.9888 472.974 234 234 206 -0.0280056 -0.196039 0.980196 
-127.26 -95.5499 472.921 230 232 196 -0.047684 -0.181199 0.98229 
-125.715 -96.0781 472.928 234 236 212 -0.0666848 -0.181002 0.981219 
-124.66 -96.8924 472.827 226 225 195 -0.0284146 -0.217846 0.97557 
-121.426 -93.9004 473.573 230 232 219 -0.108476 -0.187367 0.976282 
-119.483 -92.3686 474.09 234 235 220 -0.150581 -0.170658 0.973756 
-117.788 -94.1526 474.035 234 235 218 -0.132993 -0.194374 0.97187 
-116.981 -94.8954 474.004 233 235 226 -0.134464 -0.237898 0.961937 
-113.872 -95.201 474.111 233 235 224 -0.0096105 -0.240262 0.97066 
-112.537 -94.0233 474.363 234 235 222 0.00947495 -0.217924 0.97592 
-111.2 -95.6439 473.966 233 235 226 0.00930283 -0.213965 0.976797 
-109.769 -95.8299 473.943 234 235 222 -0.0484115 -0.203328 0.977913 
-104.61 -95.371 474.466 233 235 226 -0.0687101 -0.225762 0.971756 
-102.537 -96.1271 474.347 233 235 226 -0.0489093 -0.244546 0.968403 
-97.0277 -95.0498 475.214 233 234 228 0.0285275 -0.199692 0.979443 
-95.557 -95.1635 475.021 233 234 228 0.176978 -0.176978 0.968172 
-53.4432 -67.0379 369.208 237 221 126 0.395927 0.875839 0.275949 
-51.4739 -66.9916 369.912 233 234 228 -0.308677 0.926032 -0.217217 
8.66029 -64.1041 362.364 233 234 228 -0.251145 0.185629 0.949983 
38.4037 -61.8746 358.447 233 234 228 0.19118 0.303639 0.93341 
39.5439 -60.9554 358.142 233 234 228 0.244546 0.0489093 0.968403 
41.2145 -61.5226 357.727 233 234 228 0.215645 0.329142 0.919327 
42.5933 -61.0782 357.373 233 234 228 0.224847 0.203433 0.952921 
43.6911 -61.6667 357.157 233 234 228 0.033237 0.520714 0.853084 
44.6757 -61.4182 357.486 233 234 228 -0.706115 0.269608 0.654762 
67.3791 -84.1215 474.814 233 235 226 0.0412744 -0.0247647 0.998841 
69.3654 -81.6859 474.886 233 234 228 0.0419665 -0.0251799 0.998802 
71.9807 -85.2533 474.578 233 234 228 0.181002 -0.0666848 0.981219 
72.1702 -80.1798 474.709 233 234 228 0.133913 -0.0089275 0.990953 
74.1598 -81.3695 474.359 233 234 228 0.199548 -0.0475114 0.978736 
77.9153 -82.4614 473.466 233 234 228 0.240174 -0.0288208 0.970302 
79.4526 -80.6351 473.04 233 234 228 0.199548 0.0475114 0.978736 
80.2949 -78.7877 472.788 233 234 228 0.114251 0.0263655 0.993102 
82.1218 -80.4756 472.718 233 234 228 0.00799949 -0.00799949 0.999936 
83.8659 -79.4454 472.827 233 234 228 -0.0793175 -0.0440653 0.995875 
85.7222 -80.3301 472.961 233 234 228 -0.120355 -0.0648065 0.990613 
87.6602 -79.2927 473.303 233 234 228 -0.136189 -0.0453964 0.989642 
89.093 -81.5348 473.388 233 234 228 -0.118304 -0.0455016 0.991934 
91.2435 -82.9835 473.543 233 234 228 -0.04262 -0.059668 0.997308 
92.9053 -81.9451 473.552 233 234 228 0.0793175 -0.0440653 0.995875 
93.501 -80.6732 473.466 233 234 228 0.159647 0.0469551 0.986057 
96.9993 -80.184 472.516 233 234 228 0.268037 0.0297819 0.962948 
102.386 -79.443 470.46 233 234 228 0.376631 -0.0101792 0.926308 
104.161 -80.1265 469.765 233 234 228 0.31608 -0.0305884 0.948239 
105.185 -78.3153 469.537 233 234 228 0.249266 -0.0498531 0.967151 
105.987 -76.5791 469.49 233 234 228 0.2031 -0.0677 0.976815 
108.082 -77.2181 468.989 233 234 228 0.25385 -0.0710779 0.964629 
109.963 -80.2055 468.202 233 234 228 0.296925 -0.0716715 0.952207 
111.65 -77.9848 467.856 233 234 228 0.257924 -0.113487 0.959477 
112.885 -77.7892 467.59 233 234 228 0.233831 -0.111832 0.965824 
115.195 -80.9784 466.694 233 234 228 0.328029 -0.074071 0.941759 
116.352 -81.6025 466.128 233 234 228 0.459227 -0.0784046 0.884852 
117.895 -77.6296 465.521 233 234 228 0.468639 -0.0326957 0.882785 
119.257 -77.6946 464.824 233 234 228 0.424641 -0.0544412 0.903723 
120.385 -77.6549 464.3 233 234 228 0.476632 -0.0775912 0.875672 
122.288 -76.9185 463.432 233 234 228 0.405957 -0.0768026 0.910659 
123.901 -76.2207 462.832 233 234 228 0.416808 -0.0320622 0.908429 
125.087 -77.0877 462.157 233 234 228 0.468639 -0.0326957 0.882785 
126.855 -78.2472 461.188 233 234 228 0.468194 -0.0544412 0.881947 
127.89 -77.5822 460.637 233 234 228 0.511262 -0.0108779 0.859356 
130.348 -78.6921 459.07 233 234 228 0.555564 -0.0793663 0.827677 
130.833 -74.7167 458.798 233 234 228 0.511021 -0.0326183 0.858949 
132.21 -74.6821 457.981 233 234 228 0.529361 -0.078841 0.844725 
133.977 -76.89 456.552 233 234 228 0.591148 -0.10432 0.799788 
135.348 -75.1661 455.866 233 234 228 0.521882 -0.104376 0.846608 
136.286 -73.7615 455.513 233 234 228 0.486039 -0.0791226 0.870348 
138.127 -75.8615 454.07 233 234 228 0.657172 -0.0807054 0.749407 
139.867 -75.2245 452.397 233 234 228 0.750444 -0.0112007 0.660839 
143.434 -75.3138 447.691 233 234 228 0.66526 -0.213385 0.715469 
144.047 -72.1606 448.13 233 234 228 0.647546 -0.158832 0.745289 
145.479 -71.7421 446.961 233 234 228 0.66718 -0.105344 0.73741 
147.011 -74.9328 445.325 233 234 228 0.671018 -0.0568659 0.739257 
149.861 -72.4994 442.382 233 234 228 0.692872 -0.0822052 0.716359 
151.065 -73.9332 441.12 233 234 228 0.609784 -0.155435 0.777176 
152.768 -75.1111 439.619 233 234 228 0.686249 -0.156513 0.710328 
152.469 -69.9897 440.679 233 234 228 0.668648 -0.0821146 0.739031 
154.27 -70.0189 438.687 233 234 228 0.779967 -0.104772 0.616989 
155.252 -70.244 437.238 233 234 228 0.836323 -0.103108 0.538454 
156.511 -68.6299 435.659 233 234 228 0.852989 -0.102359 0.511793 
157.562 -70.9881 433.265 233 234 228 0.883081 -0.100604 0.458308 
157.786 -67.2008 433.342 233 234 228 0.908429 -0.0320622 0.416808 
158.617 -65.8409 431.812 233 234 228 0.791745 -0.0573728 0.608152 
-191.714 -103.317 474.803 237 238 144 0.660839 0.0112007 0.750444 
-190.069 -98.5154 474.552 234 237 167 0.181199 -0.047684 0.98229 
-188.501 -100.113 474.202 234 237 154 0.162481 -0.0669038 0.984441 
-186.459 -100.369 473.88 235 238 155 0.146058 -0.10711 0.98346 
-183.408 -98.7405 473.629 235 236 196 0.126632 -0.126632 0.983834 
-181.531 -98.7918 473.356 234 236 169 0.12425 -0.12425 0.984441 
-179.328 -97.9515 473.182 234 237 156 0.103631 -0.103631 0.989202 
-177.678 -97.109 473.11 234 236 171 0.0833798 -0.101909 0.991293 
-175.783 -97.2962 472.923 232 234 156 0.0847587 -0.122429 0.988851 
-174.321 -99.0611 472.55 235 239 162 0.12425 -0.12425 0.984441 
-172.622 -98.6605 472.364 235 238 166 0.126297 -0.145727 0.98123 
-170.098 -97.2108 472.524 233 234 163 -0.0272558 -0.136279 0.990295 
-167.908 -98.2582 472.481 224 226 150 -0.0089275 -0.133913 0.990953 
-166.038 -97.8192 472.455 233 233 182 0.0847587 -0.122429 0.988851 
-163.55 -96.5514 472.419 235 236 194 0.0847587 -0.122429 0.988851 
-159.133 -97.2568 472.056 235 238 168 0.0446946 -0.116206 0.992219 
-156.785 -94.4688 472.301 231 231 176 0.00879123 -0.114286 0.993409 
-155.531 -96.4458 472.042 235 236 178 0.026774 -0.13387 0.990637 
-153.082 -95.6963 472.081 234 236 185 0.0271841 -0.154043 0.98769 
-151.418 -94.7346 472.216 230 230 179 -0.00903766 -0.171716 0.985105 
-150.118 -94.8172 472.23 237 237 184 -0.00903766 -0.171716 0.985105 
-148.097 -95.2873 472.159 235 236 176 0.00920146 -0.174828 0.984556 
-146.061 -94.4245 472.225 237 239 174 0.0469551 -0.159647 0.986057 
-145.135 -96.2462 471.852 234 237 210 0.0666848 -0.181002 0.981219 
-141.489 -92.1513 472.596 234 236 187 -0.087239 -0.184171 0.979015 
-140.464 -94.2032 472.297 235 235 209 -0.0885808 -0.206689 0.974389 
-139.182 -96.0906 472.05 235 235 209 -0.110604 -0.191044 0.97533 
-136.092 -94.0278 472.783 236 235 189 -0.108858 -0.168234 0.979718 
-134.191 -94.0358 472.981 227 230 214 -0.0858937 -0.162244 0.983005 
-133.17 -94.6123 472.957 234 236 200 -0.0468067 -0.177866 0.982941 
-131.232 -94.9235 472.951 235 235 207 -0.00933846 -0.196108 0.980538 
-129.866 -95.776 472.79 234 236 200 -0.00933846 -0.196108 0.980538 
-127.555 -93.1662 473.349 235 235 211 -0.0281037 -0.17799 0.983631 
-125.607 -93.0143 473.45 234 235 222 -0.0468067 -0.177866 0.982941 
-123.989 -94.4717 473.3 234 234 224 -0.047684 -0.181199 0.98229 
-122.553 -94.7405 473.325 234 235 220 -0.0679548 -0.184449 0.98049 
-120.12 -94.3442 473.657 232 234 214 -0.130398 -0.190582 0.972972 
-118.947 -95.1999 473.662 234 235 218 -0.132439 -0.213941 0.967827 
-116.711 -93.0777 474.414 234 235 222 -0.130873 -0.171142 0.976516 
-115.083 -94.3877 474.27 234 235 222 -0.0482131 -0.22178 0.973904 
-113.807 -92.4781 474.715 233 235 226 -0.00933846 -0.196108 0.980538 
-111.232 -93.1318 474.518 233 234 228 0.00947495 -0.217924 0.97592 
-108.841 -94.0119 474.405 231 233 220 -0.0899146 -0.229782 0.96908 
-110.546 -72.919 477.658 227 230 201 -0.0296189 -0.286316 0.957677 
-104.433 -93.4462 474.936 233 235 224 -0.0687101 -0.225762 0.971756 
-102.332 -91.7917 475.459 233 235 226 -0.0899146 -0.229782 0.96908 
-98.1201 -92.897 475.641 234 234 224 -0.0484115 -0.203328 0.977913 
-96.4372 -92.5244 475.668 233 235 226 0.130873 -0.171142 0.976516 
-94.7155 -92.814 475.181 233 234 228 0.287511 -0.138431 0.947721 
-56.5435 -65.5241 371.825 235 235 235 0.553451 0.799429 -0.233679 
-55.1899 -66.7449 369.694 235 235 235 0.2031 0.976815 -0.0677 
-52.5183 -67.1573 369.751 233 234 228 0.0666848 0.981219 -0.181002 
-51.7228 -67.386 368.979 233 234 228 -0.188436 0.942179 0.277111 
-46.5974 -60.4354 369.51 233 234 228 0.00917045 -0.19258 0.981239 
-28.1298 -66.4505 367.069 233 234 228 0.411889 0.361963 0.83626 
-25.4303 -66.0504 366.923 233 234 228 0.0105958 0.434428 0.900644 
-15.9621 -64.6641 365.585 233 234 228 0.400556 0.148778 0.904113 
-14.5166 -65.1256 365.161 233 234 228 0.156744 0.0461011 0.986563 
-13.2649 -64.7623 364.978 233 234 228 0.138539 0.0646515 0.988244 
-12.335 -65.2358 364.881 233 234 228 0.0875356 0.165345 0.982343 
-10.9637 -65.0542 364.814 233 234 228 0.0498531 0.249266 0.967151 
-9.49627 -64.2188 364.513 233 234 228 0.16784 0.128349 0.977423 
-8.18996 -65.02 364.358 233 234 228 0.179086 0.221224 0.958639 
-6.81955 -64.2187 364.201 233 234 228 0.0089275 0.133913 0.990953 
-5.52609 -64.2381 364.108 233 234 228 0.0943923 0.283177 0.954411 
-0.400153 -63.5811 363.34 233 234 228 0.246941 0.161048 0.955554 
1.84718 -63.655 362.989 233 234 228 0.108858 0.168234 0.979718 
3.46275 -63.4899 362.847 233 234 228 0.0903121 0.210728 0.973364 
5.6289 -63.9128 362.634 233 234 228 0.170422 0.352205 0.920276 
7.1366 -62.9579 362.293 233 234 228 0.0419428 0.0419428 0.998239 
8.48851 -63.071 362.363 233 234 228 -0.154043 -0.0271841 0.98769 
20.2524 -60.4848 361.611 233 234 228 0.146058 -0.10711 0.98346 
30.0532 -60.9389 360.094 233 234 228 0.323197 0.299256 0.897769 
31.4735 -61.7369 359.638 233 234 228 0.206689 0.0885808 0.974389 
35.4902 -61.0239 358.95 233 234 228 0.187733 0.088926 0.978186 
37.1071 -61.415 358.676 233 234 228 0.181199 0.047684 0.98229 
38.0118 -60.7072 358.518 233 234 228 0.203328 -0.0484115 0.977913 
40.8808 -59.9597 357.79 233 234 228 0.249266 -0.0498531 0.967151 
43.1903 -59.7748 357.27 233 234 228 0.122213 -0.103411 0.987102 
44.4063 -59.0805 357.409 233 234 228 -0.360167 -0.0982273 0.927702 
66.8297 -82.3471 474.912 233 234 228 0.0607 -0.0433571 0.997214 
71.2193 -82.4988 474.807 233 234 228 0.0766937 -0.00852152 0.997018 
74.284 -78.9353 474.307 233 234 228 0.226023 0.0491355 0.972882 
75.836 -80.4286 473.994 233 234 228 0.263105 0.00974463 0.964718 
77.6375 -79.8076 473.448 233 234 228 0.249266 0.0498531 0.967151 
78.7288 -78.2543 473.045 233 234 228 0.203328 0.0484115 0.977913 
80.9626 -80.075 472.765 233 234 228 0.0951855 0.0259597 0.995121 
81.9511 -78.1838 472.732 233 234 228 -0.0243822 -0.0081274 0.99967 
89.5797 -78.714 473.541 233 234 228 -0.0587034 -0.0251586 0.997958 
91.5746 -80.0291 473.586 233 234 228 0.0239923 0.00799744 0.99968 
93.8022 -78.4929 473.254 233 234 228 0.199548 0.0475114 0.978736 
98.5013 -77.8387 471.943 233 234 228 0.310078 0.0300075 0.950238 
100.577 -77.573 471.216 233 234 228 0.352208 -0.0100631 0.935868 
101.804 -77.2094 470.737 233 234 228 0.365796 -0.0313539 0.930167 
102.926 -75.515 470.372 233 234 228 0.347176 -0.0526024 0.936323 
105.072 -76.6085 469.66 233 234 228 0.23015 -0.0700455 0.970631 
106.931 -78.0401 469.187 233 234 228 0.20701 -0.0690032 0.975902 
108.38 -79.0121 468.766 233 234 228 0.25385 -0.0710779 0.964629 
109.82 -77.2536 468.472 233 234 228 0.278085 -0.072096 0.957847 
111.568 -76.3638 468.064 233 234 228 0.248969 -0.0697113 0.965999 
113.337 -74.7771 467.636 233 234 228 0.310078 0.0300075 0.950238 
114.304 -77.6733 467.232 233 234 228 0.302824 -0.0730953 0.950239 
116.447 -78.3762 466.304 233 234 228 0.468194 -0.0544412 0.881947 
117.676 -75.6773 465.674 233 234 228 0.451383 -0.0104973 0.892269 
118.978 -75.4924 465.053 233 234 228 0.426275 -0.0103969 0.904534 
120.481 -76.134 464.327 233 234 228 0.442655 -0.0323894 0.896107 
121.967 -73.1933 463.505 233 234 228 0.459227 0.0784046 0.884852 
123.498 -73.3756 462.729 233 234 228 0.458308 0.100604 0.883081 
124.806 -75.0299 462.228 233 234 228 0.486039 0.0791226 0.870348 
125.995 -72.7576 461.243 233 234 228 0.459227 0.0784046 0.884852 
127.239 -73.2682 460.684 233 234 228 0.442243 0.0539321 0.895272 
129.065 -74.5601 459.822 233 234 228 0.485615 0.0107914 0.874106 
131.163 -72.3628 458.794 233 234 228 0.459227 -0.0784046 0.884852 
132.32 -73.3595 458.064 233 234 228 0.512856 -0.0797776 0.85476 
133.559 -74.1764 457.158 233 234 228 0.555564 -0.0793663 0.827677 
134.893 -72.2997 456.454 233 234 228 0.530169 -0.0564009 0.846014 
137.07 -74.6782 455.001 233 234 228 0.538454 -0.103108 0.836323 
138.473 -73.6504 453.875 233 234 228 0.695931 -0.0110465 0.718024 
140.074 -73.1932 452.151 233 234 228 0.750068 -0.0335851 0.660508 
141.487 -72.4285 450.649 233 234 228 0.759157 -0.105114 0.642364 
143.318 -73.288 448.508 233 234 228 0.653425 -0.209589 0.727398 
144.276 -70.3906 448.234 233 234 228 0.66718 -0.105344 0.73741 
147.102 -72.4824 445.376 233 234 228 0.717253 -0.0569249 0.694483 
148.458 -72.058 443.907 233 234 228 0.739257 -0.0568659 0.671018 
149.075 -69.2934 443.486 233 234 228 0.705922 -0.0578625 0.705922 
150.483 -69.1157 442.26 233 234 228 0.618331 -0.0816663 0.781663 
151.872 -70.6206 441.062 233 234 228 0.616989 -0.104772 0.779967 
153.137 -69.8081 440.036 233 234 228 0.716359 -0.0822052 0.692872 
155.181 -71.6706 437.102 233 234 228 0.829233 -0.105114 0.548929 
156.368 -75.4354 434.165 233 234 228 0.834603 -0.181435 0.520115 
156.823 -71.0881 434.572 233 234 228 0.84434 -0.127229 0.520483 
158.017 -65.7085 432.866 233 234 228 0.90024 -0.0317732 0.434233 
158.631 -63.562 432.073 233 234 228 0.770595 -0.106698 0.628331 
-173.67 -96.5526 472.81 236 238 164 0.105096 -0.143313 0.984081 
-171.673 -96.1188 472.703 233 235 159 0.0461011 -0.156744 0.986563 
-167.082 -96.7937 472.656 235 237 161 0.0264146 -0.0968534 0.994948 
-164.794 -96.4191 472.545 234 236 169 0.0648065 -0.120355 0.990613 
-159.791 -95.3848 472.282 234 237 167 0.0446946 -0.116206 0.992219 
-158.316 -95.4744 472.21 236 236 181 0.0263655 -0.114251 0.993102 
-153.408 -93.082 472.451 234 237 194 -0.00877227 -0.131584 0.991266 
-151.88 -93.5769 472.403 236 237 177 -0.00906435 -0.154094 0.988015 
-144.308 -93.9162 472.208 231 232 190 0.027595 -0.174769 0.984223 
-142.423 -94.8051 472.035 235 236 194 -0.0280056 -0.196039 0.980196 
-138.539 -92.8842 472.769 232 236 204 -0.0885808 -0.206689 0.974389 
-136.93 -92.2579 473.026 232 235 215 -0.087239 -0.184171 0.979015 
-134.723 -93.032 473.105 234 235 202 -0.0875356 -0.165345 0.982343 
-132.836 -91.9961 473.432 234 235 218 -0.0656677 -0.159479 0.985015 
-129.356 -93.047 473.336 234 236 200 -0.00920146 -0.174828 0.984556 
-125.522 -90.5219 473.888 235 236 223 -0.0468067 -0.177866 0.982941 
-123.865 -91.9595 473.737 236 235 214 -0.0666848 -0.181002 0.981219 
-122.292 -92.0033 473.859 229 231 218 -0.087239 -0.184171 0.979015 
-120.448 -91.7491 474.083 235 234 217 -0.108476 -0.187367 0.976282 
-118.722 -93.0088 474.113 234 235 220 -0.153582 -0.174059 0.972685 
-117.372 -91.8563 474.526 234 235 229 -0.130873 -0.171142 0.976516 
-116.093 -93.8647 474.34 233 234 228 -0.0690032 -0.20701 0.975902 
105.047 -75.2206 469.816 233 234 228 0.23015 -0.0700455 0.970631 
107.145 -76.4196 469.288 233 234 228 0.225762 -0.0687101 0.971756 
108.153 -75.6283 469.068 233 234 228 0.263005 -0.0292228 0.964352 
109.083 -75.1603 468.813 233 234 228 0.281103 -0.00969322 0.959629 
108.904 -61.7567 468.827 233 234 228 0.318489 -0.164736 0.933502 
113.081 -76.1335 467.701 233 234 228 0.267826 -0.0495974 0.96219 
114.505 -76.0319 467.244 233 234 228 0.376631 0.0101792 0.926308 
116.244 -76.3305 466.436 233 234 228 0.451383 0.0104973 0.892269 
117.789 -74.0184 465.621 233 234 228 0.426275 -0.0103969 0.904534 
119.755 -76.614 464.685 233 234 228 0.416808 -0.0320622 0.908429 
121.141 -74.3872 464.028 233 234 228 0.434233 0.0317732 0.90024 
122.893 -75.2373 463.232 233 234 228 0.416808 0.0320622 0.908429 
124.006 -75.3629 462.73 233 234 228 0.476632 0.0775912 0.875672 
125.153 -73.5205 461.827 233 234 228 0.485048 0.101522 0.868575 
126.527 -74.1599 461.154 233 234 228 0.467512 0.102625 0.87801 
127.764 -75.4333 460.632 233 234 228 0.494207 0.0549119 0.867608 
129.577 -72.3313 459.578 233 234 228 0.442243 -0.0539321 0.895272 
128.686 -55.2909 460.98 233 234 228 0.555564 -0.0793663 0.827677 
130.198 -54.2679 460.595 233 234 228 0.384163 -0.221185 0.89638 
137.243 -73.6257 454.965 233 234 228 0.612056 -0.0333849 0.790109 
134.826 -47.367 457.525 233 234 228 0.529361 -0.078841 0.844725 
140.323 -70.7596 452.116 233 234 228 0.682412 -0.0578315 0.728677 
142.665 -73.3717 449.126 233 234 228 0.722148 -0.159117 0.673189 
141.825 -67.0642 450.926 233 234 228 0.682412 -0.0578315 0.728677 
143.625 -41.5585 451.597 233 234 228 0.571808 -0.0560596 0.81847 
-192.055 -99.0342 475.072 236 237 170 0.527065 -0.0107564 0.849757 
-191.258 -96.9174 474.898 237 240 141 0.244546 -0.0489093 0.968403 
-188.747 -96.4271 474.477 236 238 146 0.138539 -0.0646515 0.988244 
-186.894 -96.9137 474.238 235 237 143 0.120355 -0.0648065 0.990613 
-184.713 -97.3365 473.95 225 224 126 0.122429 -0.0847587 0.988851 
-182.5 -96.5831 473.732 232 235 138 0.122429 -0.0847587 0.988851 
-180.699 -96.5422 473.491 235 237 145 0.122429 -0.0847587 0.988851 
-179 -95.6414 473.383 236 237 141 0.101909 -0.0833798 0.991293 
-177.008 -95.127 473.268 235 237 145 0.0818757 -0.10007 0.991606 
-174.986 -94.3424 473.206 235 237 161 0.0832086 -0.12019 0.989258 
-172.864 -93.7914 473.112 234 237 167 0.0648065 -0.120355 0.990613 
-170.039 -94.3852 472.908 232 235 152 0.00879123 -0.114286 0.993409 
-168.38 -95.9285 472.74 228 232 144 -0.0086403 -0.112324 0.993634 
-166.166 -94.2522 472.851 235 237 170 0.0447805 -0.0985171 0.994127 
-163.905 -94.3853 472.696 235 237 159 0.0818757 -0.10007 0.991606 
-161.872 -94.9954 472.458 235 238 168 0.0637656 -0.100203 0.992922 
-160.023 -93.2505 472.512 235 237 186 0.0447805 -0.0985171 0.994127 
-158.271 -93.0335 472.483 235 239 180 0.00879123 -0.114286 0.993409 
-153.664 -91.6228 472.645 235 236 169 0.00877227 -0.131584 0.991266 
-152.568 -93.0909 472.465 231 231 167 -0.026774 -0.13387 0.990637 
-150.734 -92.8606 472.551 234 237 194 -0.0271841 -0.154043 0.98769 
-148.008 -91.481 472.772 235 236 194 0.00890482 -0.151382 0.988435 
-145.541 -91.7814 472.617 233 235 195 0.0461011 -0.156744 0.986563 
-144.204 -91.2991 472.64 234 235 191 0.00903766 -0.171716 0.985105 
-142.97 -91.9661 472.545 236 236 181 -0.0281037 -0.17799 0.983631 
-140.522 -91.9738 472.741 228 229 187 -0.130398 -0.190582 0.972972 
-139.643 -91.5103 472.953 233 234 203 -0.110604 -0.191044 0.97533 
-137.541 -90.7833 473.281 233 235 215 -0.0677 -0.2031 0.976815 
-135.456 -91.3161 473.344 235 235 198 -0.0875356 -0.165345 0.982343 
-133.741 -92.7344 473.244 231 231 178 -0.0858937 -0.162244 0.983005 
-131.923 -92.6196 473.376 234 236 198 -0.0281037 -0.17799 0.983631 
-129.507 -89.8948 473.873 234 236 214 -0.0276795 -0.15685 0.987234 
-127.902 -90.8453 473.766 234 235 218 -0.027595 -0.174769 0.984223 
-126.589 -91.32 473.711 234 235 218 -0.0281037 -0.17799 0.983631 
-124.504 -90.7359 473.909 231 232 215 -0.0666848 -0.181002 0.981219 
-121.93 -89.701 474.33 229 231 211 -0.087239 -0.184171 0.979015 
-119.992 -89.1914 474.629 234 235 222 -0.130398 -0.190582 0.972972 
-118.594 -90.2418 474.626 230 231 214 -0.153582 -0.174059 0.972685 
-117.041 -89.9555 474.918 234 235 229 -0.130398 -0.190582 0.972972 
-115.482 -90.9933 474.913 233 235 224 -0.0679548 -0.184449 0.98049 
-113.767 -90.5836 475.095 233 235 226 -0.0281037 -0.17799 0.983631 
-112.142 -90.6316 475.089 234 234 224 -0.00933846 -0.196108 0.980538 
-110.079 -91.7086 474.873 233 235 224 -0.0482131 -0.22178 0.973904 
-108.045 -90.9161 475.21 233 235 226 -0.0885808 -0.206689 0.974389 
-103.656 -87.7807 476.27 233 235 222 -0.0903121 -0.210728 0.973364 
-102.291 -87.9341 476.332 231 231 221 -0.0690032 -0.20701 0.975902 
-100.291 -78.5902 477.553 233 234 228 -0.0677 -0.2031 0.976815 
-99.4631 -90.255 476.12 233 234 228 -0.0690032 -0.20701 0.975902 
-97.3566 -90.0383 476.217 233 235 226 0.0666848 -0.181002 0.981219 
-95.743 -90.3275 475.895 234 234 226 0.262432 -0.136465 0.955252 
-56.4475 -65.6868 369.679 233 234 228 0.757969 0.552418 0.346867 
-55.6058 -66.3754 369.368 233 234 228 0.562922 0.720016 0.405827 
-54.2863 -66.1606 369.067 233 234 228 0.17294 0.426586 0.887759 
-52.6796 -66.4677 368.82 233 234 228 0.0912355 0.253432 0.963041 
-51.526 -66.692 368.832 233 234 228 -0.207209 0.49974 0.841026 
-50.2987 -65.8972 369.169 233 234 228 -0.583698 0.637996 0.502252 
-49.1784 -65.5702 370.372 233 234 228 -0.34046 0.938843 0.0515848 
-46.004 -65.2202 370.092 233 234 228 -0.0759301 0.922009 0.379651 
-40.6506 -65.7882 369.119 233 234 228 0.268197 0.60025 0.753505 
-39.147 -65.358 368.96 233 234 228 -0.0571028 0.582448 0.81086 
-37.5426 -65.2735 368.737 233 234 228 0.106698 0.628331 0.770595 
-36.4895 -65.5483 368.78 233 234 228 0.0808344 0.681319 0.72751 
-29.7201 -64.5588 367.545 233 234 228 0.455992 0.151997 0.876908 
-28.246 -63.9931 367.028 233 234 228 0.263129 -0.115777 0.957789 
-26.5642 -65.2745 366.685 233 234 228 0.00852152 0.0766937 0.997018 
-25.755 -64.1719 366.694 233 234 228 0.0243822 -0.0081274 0.99967 
-24.2631 -64.2239 366.607 233 234 228 0.0967933 0.043997 0.994332 
-22.6262 -64.6974 366.378 233 234 228 0.122429 0.0847587 0.988851 
-21.3715 -64.2783 366.26 233 234 228 0.0081231 0.0406155 0.999142 
-20.5239 -64.9368 366.43 233 234 228 -0.275001 0.34674 0.896742 
-18.1175 -63.5554 366.136 233 234 228 0.250074 0.206583 0.945932 
-15.8468 -62.6976 365.607 233 234 228 0.206689 -0.0885808 0.974389 
-14.9892 -63.3144 365.387 233 234 228 0.206689 -0.0885808 0.974389 
-13.8035 -63.3564 365.174 233 234 228 0.165033 -0.106786 0.98049 
-12.2428 -63.3771 364.935 233 234 228 0.120355 -0.0648065 0.990613 
-10.6703 -63.0952 364.731 233 234 228 0.159647 -0.0469551 0.986057 
-9.44391 -62.4768 364.596 233 234 228 0.165033 -0.106786 0.98049 
-8.24799 -63.3421 364.325 233 234 228 0.118304 -0.0455016 0.991934 
-7.09596 -62.2769 364.311 233 234 228 0.103631 -0.103631 0.989202 
-5.78915 -62.77 364.116 233 234 228 0.10007 -0.0818757 0.991606 
-4.62493 -63.3953 364.001 233 234 228 -0.00825713 0.0412857 0.999113 
-3.42033 -62.4087 363.968 233 234 228 0.0967933 0.043997 0.994332 
-1.69582 -61.9659 363.644 233 234 228 0.244734 0.029368 0.969145 
-0.280731 -61.9458 363.307 233 234 228 0.181199 -0.047684 0.98229 
0.736222 -62.822 363.126 233 234 228 0.156744 0.0461011 0.986563 
1.94199 -61.9217 363 233 234 228 0.118304 -0.0455016 0.991934 
3.25859 -61.0624 362.857 233 234 228 0.159479 -0.0656677 0.985015 
4.72505 -61.9253 362.561 233 234 228 0.154043 0.0271841 0.98769 
5.95195 -62.1254 362.385 233 234 228 0.11628 0.0268339 0.992854 
7.42965 -59.7059 362.471 233 234 228 -0.00837914 -0.0754122 0.997117 
8.19897 -61.1987 362.442 233 234 228 -0.118304 -0.0455016 0.991934 
9.53464 -61.7091 362.675 233 234 228 -0.221945 -0.0289494 0.974629 
18.5023 -60.3854 362.014 233 234 228 0.234316 -0.0916889 0.967827 
23.2846 -60.9663 361.124 233 234 228 0.146058 -0.10711 0.98346 
24.6899 -60.9013 360.942 233 234 228 0.100203 -0.0637656 0.992922 
25.988 -60.2604 360.825 233 234 228 0.133913 -0.0089275 0.990953 
27.2602 -59.9874 360.612 233 234 228 0.159479 0.0656677 0.985015 
28.5578 -59.6557 360.336 233 234 228 0.203328 0.0484115 0.977913 
31.3029 -60.0771 359.73 233 234 228 0.174769 -0.027595 0.984223 
35.447 -59.4524 359.002 233 234 228 0.12019 -0.0832086 0.989258 
36.0361 -58.6337 359.069 233 234 228 0.0847587 -0.122429 0.988851 
36.7422 -59.822 358.849 233 234 228 0.143575 -0.0861451 0.985883 
38.125 -59.3392 358.644 233 234 228 0.234316 -0.0916889 0.967827 
39.3173 -58.5349 358.367 233 234 228 0.278085 -0.072096 0.957847 
40.6229 -58.2479 358.011 233 234 228 0.25385 -0.0710779 0.964629 
41.984 -58.8908 357.62 233 234 228 0.206689 -0.0885808 0.974389 
43.1796 -58.2528 357.48 233 234 228 0.0648065 -0.120355 0.990613 
44.3769 -51.9987 358.281 233 234 228 -0.358172 -0.196417 0.912761 
45.6489 -57.0608 358.274 233 234 228 -0.770914 0.0111727 0.636842 
63.8126 -80.8806 475.203 233 235 226 0.0607 -0.0433571 0.997214 
68.0905 -77.9614 475.106 233 234 228 0.0606453 -0.0606453 0.996315 
72.6927 -77.5477 474.606 233 234 228 0.199692 0.0285275 0.979443 
74.0493 -76.3417 474.164 233 234 228 0.248969 0.0697113 0.965999 
76.3778 -77.4226 473.607 233 234 228 0.249266 0.0498531 0.967151 
78.269 -76.3043 473.06 233 234 228 0.196108 0.00933846 0.980538 
80.3192 -76.3649 472.797 233 234 228 0.0766714 -0.0255571 0.996729 
82.063 -76.1552 472.757 233 234 228 -0.0412744 -0.0247647 0.998841 
81.9638 -62.0931 472.891 233 234 228 0.0858937 -0.162244 0.983005 
86.1564 -77.1499 473.208 233 234 228 -0.118304 -0.0455016 0.991934 
88.6538 -76.2593 473.515 233 234 228 -0.0597027 -0.0255869 0.997888 
91.0888 -76.8686 473.546 233 234 228 0.05872 0.00838856 0.998239 
95.5331 -75.8961 472.73 233 234 228 0.244734 0.029368 0.969145 
97.1485 -74.6937 472.254 233 234 228 0.258246 0.00956467 0.966032 
100.933 -75.4547 471.16 233 234 228 0.31608 -0.0305884 0.948239 
101.865 -74.3355 470.874 233 234 228 0.347176 -0.0526024 0.936323 
104.118 -76.1485 469.951 233 234 228 0.272699 -0.0706999 0.959498 
104.618 -72.3262 469.968 233 234 228 0.29183 0.0301893 0.955994 
106.054 -72.7102 469.591 233 234 228 0.267826 0.0495974 0.96219 
108.165 -73.1294 469.019 233 234 228 0.268037 0.0297819 0.962948 
110.167 -74.7269 468.502 233 234 228 0.258246 -0.00956467 0.966032 
111.892 -74.5141 468.044 233 234 228 0.263105 0.00974463 0.964718 
112.807 -73.2065 467.72 233 234 228 0.291594 0.0502747 0.95522 
114.491 -74.2822 467.184 233 234 228 0.391168 0.0317163 0.919773 
116.007 -73.3083 466.473 233 234 228 0.409033 0.010488 0.912459 
117.345 -72.5384 465.878 233 234 228 0.408854 -0.0314503 0.912058 
119.054 -73.3214 465.06 233 234 228 0.451383 -0.0104973 0.892269 
120.332 -71.5923 464.274 233 234 228 0.503777 0.0559752 0.862018 
120.924 -69.9908 463.748 233 234 228 0.450931 0.0549916 0.890863 
123.255 -71.524 462.674 233 234 228 0.450931 0.0549916 0.890863 
124.916 -71.5471 461.751 233 234 228 0.494207 0.0549119 0.867608 
126.042 -71.1421 461.143 233 234 228 0.426275 0.0103969 0.904534 
127.791 -71.4731 460.394 233 234 228 0.401337 -0.0102907 0.915872 
128.69 -70.0426 460.121 233 234 228 0.372193 -0.0744386 0.925166 
130.632 -70.1812 459.282 233 234 228 0.450278 -0.0768767 0.889573 
132.32 -72.1181 458.179 233 234 228 0.546099 -0.0557244 0.835865 
132.875 -70.0532 457.911 233 234 228 0.546642 -0.0334679 0.836697 
134.692 -69.6125 456.763 233 234 228 0.520203 -0.0553408 0.852248 
136.496 -71.2495 455.518 233 234 228 0.587188 -0.033237 0.808768 
138.099 -70.9457 454.216 233 234 228 0.673181 -0.0110358 0.739395 
138.761 -68.8561 453.573 233 234 228 0.660839 -0.0112007 0.750444 
140.78 -70.6788 451.709 233 234 228 0.750605 -0.0577389 0.658223 
143.252 -69.0977 449.369 233 234 228 0.692872 -0.0822052 0.716359 
144.347 -68.6868 448.382 233 234 228 0.681319 -0.0808344 0.72751 
149.216 -66.9551 443.487 233 234 228 0.671713 -0.0341549 0.740023 
149.901 -66.0429 442.978 233 234 228 0.607193 -0.0801953 0.790497 
151.669 -67.7478 441.531 233 234 228 0.607193 -0.0801953 0.790497 
152.931 -65.0368 440.62 233 234 228 0.706706 -0.0336527 0.706706 
154.16 -64.922 439.363 233 234 228 0.739031 -0.0821146 0.668648 
155.564 -68.4351 437.089 233 234 228 0.810755 -0.105751 0.575754 
156.88 -67.2385 435.216 233 234 228 0.875672 -0.0775912 0.476632 
157.334 -64.7884 434.448 233 234 228 0.912459 -0.010488 0.409033 
158.069 -63.7091 432.946 233 234 228 0.875672 -0.0775912 0.476632 
158.724 -61.3101 432.436 233 234 228 0.736116 -0.132742 0.663711 
-192.214 -93.932 475.291 236 238 148 0.31608 -0.0305884 0.948239 
-190.909 -93.98 474.971 238 234 144 0.199548 -0.0475114 0.978736 
-190.103 -95.8379 474.71 232 234 115 0.181002 -0.0666848 0.981219 
-187.512 -93.9577 474.483 245 236 148 0.118304 -0.0455016 0.991934 
-185.239 -93.9512 474.209 229 230 132 0.116206 -0.0446946 0.992219 
-183.289 -94.6742 473.961 235 238 157 0.118304 -0.0455016 0.991934 
-180.981 -94.1988 473.699 235 235 128 0.100203 -0.0637656 0.992922 
-178.346 -93.1081 473.526 238 234 140 0.0805532 -0.0805532 0.99349 
-176.438 -93.1936 473.411 237 239 172 0.0626325 -0.0984224 0.993172 
-174.085 -92.2462 473.363 236 239 138 0.0626325 -0.0984224 0.993172 
-171.83 -92.4214 473.216 233 236 164 0.0446946 -0.116206 0.992219 
-171.348 -93.5232 473.056 237 239 163 0.0455016 -0.118304 0.991934 
-168.37 -92.841 473.058 236 238 173 0.0264146 -0.0968534 0.994948 
-165.675 -91.3452 473.067 235 237 161 0.062733 -0.0806567 0.994766 
-164.259 -92.0619 472.911 231 235 158 0.062733 -0.0806567 0.994766 
-162.71 -92.6024 472.757 235 237 163 0.0805532 -0.0805532 0.99349 
-161.069 -91.9393 472.693 230 232 167 0.062733 -0.0806567 0.994766 
-159.258 -91.1629 472.693 235 237 172 0.00865582 -0.095214 0.995419 
-156.152 -91.2169 472.709 234 237 181 -0.00877227 -0.131584 0.991266 
-154.763 -93.295 472.437 236 236 172 0.00877227 -0.131584 0.991266 
-152.815 -91.7067 472.648 234 237 194 -0.026774 -0.13387 0.990637 
-151.666 -91.3747 472.731 235 237 197 -0.0272558 -0.136279 0.990295 
-149.321 -92.1562 472.685 233 236 193 0.00890482 -0.151382 0.988435 
-146.919 -92.4682 472.594 232 233 164 0.0461011 -0.156744 0.986563 
-144.789 -89.012 473.025 232 235 208 0.00906435 -0.154094 0.988015 
-142.545 -88.4932 473.164 234 237 183 -0.0656677 -0.159479 0.985015 
-140.424 -89.8018 473.16 234 236 198 -0.108858 -0.168234 0.979718 
-139.425 -90.0337 473.276 235 235 198 -0.128349 -0.16784 0.977423 
-137.52 -89.4616 473.533 230 231 187 -0.0656677 -0.159479 0.985015 
-135.215 -87.9094 473.879 237 237 213 -0.0832086 -0.12019 0.989258 
-133.666 -90.3112 473.632 234 235 204 -0.0658534 -0.141114 0.987801 
-131.59 -90.1565 473.766 234 235 222 -0.046227 -0.138681 0.989258 
-130.732 -92.0158 473.513 233 235 224 -0.027595 -0.174769 0.984223 
-127.984 -88.7434 474.12 233 234 217 -0.0461011 -0.156744 0.986563 
-126.42 -88.7355 474.172 235 234 213 -0.0469551 -0.159647 0.986057 
-124.588 -88.4526 474.326 234 235 220 -0.0666848 -0.181002 0.981219 
-123.055 -89.5317 474.259 235 234 213 -0.087239 -0.184171 0.979015 
-121.177 -89.9944 474.341 233 236 218 -0.108476 -0.187367 0.976282 
-118.986 -88.4132 474.923 235 236 221 -0.132993 -0.194374 0.97187 
-117.457 -88.7758 475.083 234 235 220 -0.153005 -0.193807 0.969035 
-115.056 -87.9067 475.495 233 235 224 -0.0656677 -0.159479 0.985015 
-113.727 -88.7982 475.401 233 235 226 -0.027595 -0.174769 0.984223 
-112.106 -87.0441 475.734 234 235 220 -0.0469551 -0.159647 0.986057 
-109.981 -88.1092 475.677 234 235 222 -0.0679548 -0.184449 0.98049 
-107.526 -86.9135 476.096 233 235 224 -0.0679548 -0.184449 0.98049 
-105.359 -90.0797 475.623 235 236 223 -0.0885808 -0.206689 0.974389 
-102.94 -86.3026 476.638 233 234 228 -0.0468067 -0.177866 0.982941 
-100.783 -88.1567 476.426 233 235 226 -0.088926 -0.187733 0.978186 
-99.4772 -87.8577 476.63 233 235 226 -0.0469551 -0.159647 0.986057 
-98.2024 -87.6072 476.66 233 234 228 0.0461011 -0.156744 0.986563 
-96.1469 -87.6001 476.398 233 234 228 0.193807 -0.153005 0.969035 
-94.0823 -89.5452 475.413 234 235 229 0.313098 -0.140354 0.939293 
